-0.195066 -0.105556 0.000295 0.277444 -0.485155 -0.829246
0.072789 0.137886 0.316609 0.468444 -0.274896 -0.839638
0.019511 -0.170214 -0.282685 0.929189 -0.355951 -0.099536
-0.184176 0.035824 -0.049712 -0.965133 0.191696 0.178242
-0.121581 -0.008186 0.126673 0.514466 0.339500 0.787442
0.036943 -0.037870 -0.204205 0.952865 0.294091 0.074562
-0.205007 0.057044 -0.101129 -0.224585 0.974428 0.007101
-0.132807 -0.076134 -0.188026 -0.962203 -0.262875 0.071154
0.567676 0.046635 -0.160273 0.125679 -0.933714 -0.335236
0.234862 0.163699 -0.217116 -0.481611 -0.015206 -0.876253
-0.117746 0.131460 -0.122673 -0.686703 0.346030 -0.639298
0.212208 0.241440 0.195034 0.067078 0.348450 0.934924
0.489587 0.070531 -0.224917 0.230476 -0.265924 -0.936037
0.022832 0.413870 0.116368 -0.346840 0.766885 0.539991
-0.085626 -0.130888 -0.320746 0.164570 0.845192 -0.508495
-0.073934 -0.068578 0.021663 0.583508 -0.811783 0.022924
-0.142259 -0.230453 -0.366734 0.217853 -0.210218 -0.953073
-0.017943 0.292548 -0.135882 -0.513160 0.163484 -0.842579
0.321973 0.236566 0.214115 0.756206 -0.568990 -0.323115
0.122811 0.180419 0.506738 -0.627060 0.433652 0.647103
0.282590 0.310709 0.111849 0.615627 0.575576 0.538253
-0.010976 0.261660 0.227321 -0.500348 0.857788 0.117695
0.332197 0.032354 0.118920 -0.028256 -0.701232 -0.712373
-0.259906 -0.036850 0.074038 -0.933597 0.318925 0.163350
-0.249601 -0.317571 -0.297387 0.125278 -0.306340 0.943642
0.224414 0.142343 -0.023641 0.880392 -0.434039 0.191103
-0.130288 -0.080954 -0.183973 -0.924186 -0.340778 0.172481
-0.377919 -0.376545 0.068743 -0.785009 -0.503639 0.360705
0.019919 -0.136528 -0.223400 0.727557 -0.599363 0.333802
-0.193750 -0.093050 0.158101 0.064407 0.082405 0.994516
0.391981 0.095954 -0.244011 -0.169005 -0.495725 -0.851877
-0.443776 -0.269655 -0.037043 -0.791949 0.434366 0.429119
0.268899 0.166690 0.508742 0.876500 0.179840 -0.446549
0.251905 0.238491 -0.075177 0.785724 0.435555 -0.439238
0.122124 0.149729 0.509263 -0.733771 -0.401736 0.547895
0.295011 0.216182 0.215243 -0.074107 -0.261901 0.962246
0.095281 0.335134 0.185223 0.075315 0.170587 0.982460
0.250303 0.309106 0.144690 0.773856 0.045987 0.631690
0.176862 0.247214 0.191280 -0.048549 0.207487 0.977032
0.020823 0.083021 0.148750 -0.330119 -0.618846 0.712777
0.002498 -0.136385 -0.197220 0.634708 -0.606553 0.478790
-0.080655 -0.210777 -0.344363 0.237886 -0.080004 -0.967992
-0.357285 0.037807 -0.204982 0.365112 -0.881209 -0.300274
-0.362099 -0.265099 -0.058272 0.494926 -0.280163 -0.822531
0.268686 0.247362 0.234636 0.612090 -0.427604 0.665207
-0.351646 -0.156202 -0.019548 -0.379061 0.804292 -0.457632
0.331234 0.280017 0.280684 -0.448282 0.213925 0.867917
0.178378 0.340729 0.168885 0.179326 0.516263 0.837445
0.109155 0.040663 -0.042841 -0.062972 -0.881897 -0.467219
0.314810 0.029617 0.190918 -0.551199 -0.672679 0.493643
0.565929 0.157163 -0.137759 0.869978 -0.237647 -0.432043
0.004573 -0.048299 -0.105360 0.647767 -0.648325 0.400091
-0.128380 -0.364651 -0.368844 0.921133 0.038821 0.387307
-0.401078 -0.224255 0.032453 -0.775687 0.177075 0.605767
0.338154 0.152845 0.135042 0.585321 0.233868 0.776341
0.441748 0.151797 -0.252357 0.655411 0.187256 -0.731691
-0.181292 -0.112538 0.156496 0.313193 -0.079018 0.946397
0.019580 0.048531 0.109763 -0.528154 -0.753534 0.391460
0.057275 0.092452 0.350564 0.036754 -0.935773 -0.350683
-0.374861 -0.313567 -0.068998 0.772736 -0.207292 -0.599924
0.238236 0.197010 0.500454 0.183499 -0.982532 0.030962
-0.116790 0.194607 0.089742 -0.821387 -0.018643 0.570066
-0.388670 -0.289183 -0.087049 0.641107 0.113012 -0.759085
-0.173372 -0.150602 -0.307607 -0.647521 0.762025 0.005899
0.288753 0.190210 -0.215181 0.625088 0.175045 -0.760673
0.278179 0.334967 0.063201 0.653700 0.532633 -0.537567
-0.048397 0.180967 -0.135548 0.149633 0.450425 -0.880186
0.102792 0.344558 0.182401 0.093860 0.298049 0.949925
0.333602 0.296732 0.308559 0.919245 0.116338 0.376105
-0.129913 -0.269481 -0.256946 0.178141 -0.796540 0.577745
-0.077926 -0.159105 -0.339739 0.326718 0.400735 -0.855960
0.104090 0.366929 0.168928 0.107533 0.372247 0.921883
0.450236 0.135752 -0.244233 0.737554 0.044668 -0.673809
0.556762 0.153495 -0.154498 0.952281 0.215148 -0.216499
-0.095204 -0.261536 -0.316995 0.470399 -0.881980 -0.028898
-0.092878 0.315068 0.067469 -0.901424 0.327924 0.282668
-0.043736 0.232744 -0.136758 -0.661144 0.100298 -0.743525
-0.136369 0.095271 -0.114744 -0.780970 0.245289 -0.574387
-0.065553 0.160626 0.143755 -0.584783 -0.099410 0.805075
-0.340477 -0.389415 0.006909 -0.260842 -0.942014 -0.211120
0.152034 0.100029 0.078412 0.795315 -0.591022 0.134786
0.085021 0.212815 0.472248 0.029160 0.561256 0.827129
-0.338285 -0.376751 -0.017816 0.315953 -0.365173 -0.875684
0.138443 0.174923 -0.163612 -0.596500 -0.462179 -0.656185
-0.097697 0.073416 -0.167113 -0.491414 0.557036 -0.669494
0.098587 0.332672 -0.139427 0.027720 0.619152 -0.784782
0.535015 0.030586 -0.197170 0.293632 -0.494058 -0.818344
-0.373696 -0.384337 0.075644 -0.782709 -0.103109 0.613788
0.341280 0.165939 -0.122298 -0.175587 0.388394 0.904610
-0.239731 -0.295812 -0.291876 -0.336778 0.106948 0.935491
0.458673 0.163960 -0.139071 0.541034 0.423050 0.726850
0.111622 0.205788 0.221340 0.169785 -0.076016 0.982545
-0.130773 -0.102469 0.132242 0.669268 -0.123813 0.732632
0.053903 0.341729 -0.134173 -0.092047 0.588219 -0.803446
-0.077470 0.344258 0.004871 -0.715170 0.677002 -0.173783
0.170209 0.112250 0.079943 0.627647 -0.638944 0.444759
0.073165 0.273499 -0.160445 -0.114901 0.291519 -0.949639
0.227771 0.135158 -0.092119 0.355432 -0.772740 0.525872
-0.047505 0.174562 0.162374 -0.823426 -0.228415 0.519419
-0.049339 0.198903 0.183263 -0.954695 -0.171820 -0.242971
0.282139 0.210999 -0.215922 0.384495 0.487491 -0.783911
-0.146488 -0.015618 0.139683 0.264491 0.263307 0.927747
-0.306893 -0.389363 0.031305 0.968109 0.069337 -0.240742
-0.031367 0.146842 0.204056 -0.598048 -0.723545 -0.344705
-0.450279 -0.308002 -0.023431 -0.888196 -0.420213 0.185822
0.253105 0.308387 0.142334 0.734297 0.109877 0.669877
-0.133362 -0.043433 -0.228428 -0.902627 0.169714 -0.395552
0.100229 0.191358 -0.155481 0.180531 -0.188798 -0.965279
0.206942 0.114812 -0.072661 0.693476 -0.495456 -0.523082
0.197518 0.294557 0.184329 0.518692 -0.443064 0.731199
-0.224902 -0.339543 -0.306907 0.081135 -0.338743 0.937374
-0.267204 -0.069855 0.053461 -0.887750 0.459700 0.023986
-0.120482 0.202013 0.052587 -0.863604 -0.463197 -0.199092
0.123542 0.164850 0.396057 0.783791 -0.212959 -0.583369
-0.201066 0.017413 -0.021797 -0.873072 0.260718 -0.412034
-0.030186 0.207572 0.299642 -0.769105 0.620112 0.154719
0.294276 0.302364 0.253723 -0.331558 0.934368 -0.130485
-0.229879 0.007496 -0.087894 -0.178434 -0.468184 0.865428
-0.194207 -0.238237 -0.249623 -0.616977 -0.080932 0.782808
-0.157199 -0.301177 -0.315116 0.461227 -0.873315 0.156812
0.037383 0.007885 -0.095400 0.912646 -0.279101 -0.298629
-0.162630 0.087372 0.030151 -0.693446 0.699845 0.171319
-0.082099 0.317613 0.097318 -0.876747 0.216533 0.429451
-0.260943 0.022698 -0.099181 -0.412787 -0.041855 0.909865
0.288204 0.047034 0.170468 -0.750412 -0.628325 0.205155
-0.206628 -0.024864 0.141276 -0.381627 0.478206 0.790999
-0.397677 -0.303604 0.042796 -0.035598 0.842925 0.536853
-0.118313 -0.077582 -0.152380 -0.797143 -0.379078 0.469961
0.025052 -0.073096 -0.161680 0.725869 -0.252822 0.639684
0.309242 0.072363 0.094054 -0.146997 -0.506439 -0.849654
0.192649 0.253570 0.190100 0.142181 0.471268 0.870454
-0.044484 0.378885 -0.015050 -0.562931 0.664438 -0.491560
0.179308 0.256209 -0.150872 0.057388 0.771135 -0.634080
0.421265 0.119413 -0.258618 0.380617 -0.566679 -0.730757
0.344848 0.196242 0.081898 0.768361 -0.185719 -0.612478
-0.137825 -0.018511 -0.174005 -0.989850 0.141997 0.005835
-0.265768 -0.178651 -0.027048 0.508626 0.470661 -0.720956
0.274868 0.209213 -0.106533 0.610166 0.497924 0.616254
-0.392132 -0.266188 -0.083502 0.511699 0.367494 -0.776603
0.166060 0.048667 -0.022334 0.519069 -0.850916 -0.080681
0.357507 0.178947 -0.252102 -0.581388 0.423683 -0.694608
-0.000195 0.152793 0.430024 -0.782562 -0.500580 0.370157
0.067212 0.007474 -0.025605 0.672470 -0.640277 -0.371254
-0.136396 -0.139409 0.113000 0.820670 -0.491847 0.290838
-0.072478 -0.235045 -0.272040 0.598504 -0.649568 0.468886
0.217580 0.139088 0.023069 0.484413 -0.873221 0.053198
0.367925 0.065364 -0.183658 -0.288202 -0.957216 0.026042
0.004877 0.259577 0.250503 -0.077588 0.913361 0.399690
0.034333 0.014623 -0.138913 0.959044 0.123762 -0.254791
0.008627 -0.133332 -0.289348 0.610009 0.367014 -0.702275
-0.142334 0.161817 -0.053701 -0.681472 0.482131 -0.550586
-0.114557 0.026723 -0.204036 -0.735094 0.609340 -0.297222
0.027904 0.437774 0.034234 -0.393497 0.917495 0.058000
0.111568 0.207794 0.353011 0.172802 0.857340 -0.484879
-0.145982 0.167854 -0.004391 -0.867786 0.493571 -0.057753
-0.229603 -0.041238 0.130163 -0.599155 0.362476 0.713879
0.049111 0.095570 0.173988 -0.240753 -0.529892 0.813174
0.505768 0.171761 -0.157387 -0.131101 0.988763 0.071829
-0.453290 -0.300177 -0.036242 -0.953305 -0.067112 0.294456
0.127373 0.422819 -0.036112 0.330832 0.767494 -0.549094
0.340896 0.218795 0.077709 0.872213 -0.079747 -0.482582
-0.316938 -0.354261 -0.003306 0.880158 -0.065891 -0.470085
0.328713 0.103779 0.161135 0.858732 0.126049 0.496680
0.372783 0.297773 0.073918 -0.426307 0.776206 -0.464506
0.078831 0.445959 0.028737 -0.001182 0.999453 0.033066
0.303965 0.306487 0.264467 -0.346754 0.924460 -0.158543
-0.106559 0.107978 -0.138698 -0.484056 0.270458 -0.832191
0.046216 0.170082 0.480052 -0.256725 -0.100977 0.961195
-0.352061 -0.378489 -0.010925 -0.611994 -0.743084 -0.270722
-0.261882 0.041000 -0.108072 -0.380332 0.638778 0.668813
-0.143214 0.152966 -0.058368 -0.875572 0.223300 -0.428381
-0.000028 0.088435 0.134380 -0.295888 -0.582306 0.757212
-0.305305 -0.123660 0.025177 -0.103971 0.980906 -0.164360
0.319524 0.193961 -0.210478 -0.154066 0.713428 -0.683582
0.012314 0.315767 0.193284 -0.268609 0.350480 0.897225
0.016338 0.210504 0.350032 -0.538925 0.841823 0.029902
0.253132 0.226375 -0.190204 0.184159 0.748975 -0.636492
0.257587 0.243644 -0.043952 0.913026 0.369425 -0.172941
-0.126330 -0.367859 -0.346444 0.948861 0.240042 -0.205044
0.134618 0.318595 0.180971 0.097163 0.335061 0.937173
-0.049867 0.333123 0.138842 -0.717522 0.439945 0.540009
0.028801 -0.127212 -0.255345 0.898145 -0.367431 -0.241517
0.440484 0.186049 -0.144123 0.276451 0.835729 0.474481
0.198273 0.331329 -0.088585 0.746442 0.312063 -0.587742
-0.111830 0.060029 0.091679 -0.087171 0.474027 0.876185
0.417705 0.303490 0.062938 -0.165331 0.719415 -0.674616
0.288138 0.273413 0.188126 0.620585 0.544812 -0.563963
-0.043497 0.359537 0.114659 -0.619173 0.597868 0.509096
0.546170 0.144365 -0.173472 0.880859 0.387736 -0.271567
-0.137467 0.113478 0.056470 -0.728508 0.134888 0.671626
0.124455 0.345747 -0.122583 0.089938 0.556394 -0.826037
-0.162613 -0.145532 -0.272860 -0.578558 0.775739 0.251992
0.144214 0.053456 0.033467 0.196875 -0.807128 0.556583
0.541564 0.121371 -0.193887 0.546508 0.030396 -0.836902
-0.279583 -0.275264 -0.342219 -0.440899 0.859186 -0.259627
0.053406 0.408495 0.131497 -0.074457 0.760974 0.644496
0.233766 0.213407 0.485621 0.541951 0.130581 -0.830203
0.062303 0.117378 -0.124172 -0.037945 -0.430519 -0.901784
-0.052409 0.371579 0.089161 -0.745180 0.576611 0.335003
0.269069 0.233564 -0.160532 0.515814 0.842958 -0.152836
0.034704 0.302092 0.206924 -0.255524 0.331655 0.908137
-0.329606 -0.175275 0.088775 -0.452711 0.018804 0.891459
0.585104 0.028462 -0.115051 0.471353 -0.880750 0.045879
0.562009 0.071528 -0.176696 0.720750 0.270821 -0.638102
0.184690 0.095090 0.033372 0.684950 -0.252038 0.683608
-0.154900 -0.071558 0.152482 0.325368 -0.054043 0.944042
-0.048176 0.098108 -0.167013 -0.024071 0.582965 -0.812141
-0.068414 0.310380 0.132556 -0.701754 0.379856 0.602703
-0.072710 0.356694 0.044058 -0.804602 0.584977 -0.102064
0.020006 0.430864 0.018304 -0.403183 0.915114 0.003121
0.315965 0.230724 0.228798 -0.966075 -0.025873 -0.256963
0.186815 0.125013 -0.146542 -0.441760 -0.882795 -0.159752
0.274068 0.277473 0.264097 -0.643422 -0.106166 0.758114
-0.088367 -0.161872 -0.346375 0.310359 0.206591 -0.927900
0.371712 0.240168 0.095173 0.079116 -0.487256 -0.869668
-0.228524 -0.206176 0.134010 -0.070724 -0.688431 0.721846
-0.189077 -0.191593 0.094846 0.632265 -0.765525 0.119214
-0.116452 0.248934 0.053108 -0.962900 0.219341 0.157206
0.159672 0.192172 0.189590 0.427503 -0.858484 -0.283278
0.388296 0.199467 -0.150373 0.045480 0.834913 0.548499
-0.023990 -0.114906 -0.151786 0.126896 -0.614313 0.778792
-0.312828 -0.205058 0.092987 -0.580187 -0.034327 0.813759
0.265622 0.176323 0.197196 0.077481 -0.270014 0.959734
-0.024028 0.308068 -0.125236 -0.523197 0.386721 -0.759415
0.295332 0.127948 0.187560 0.071646 -0.762547 0.642953
0.115632 0.379776 0.164321 0.156126 0.515788 0.842370
0.093960 0.120810 0.467857 0.122934 -0.706056 0.697404
0.217054 0.225185 -0.196249 -0.025923 0.638349 -0.769310
-0.360107 -0.361636 -0.035359 -0.246650 -0.572215 -0.782134
0.316780 0.180067 -0.125105 0.538287 0.356917 0.763451
-0.170897 -0.153386 -0.328246 -0.738426 0.596247 -0.314987
-0.008784 -0.034716 -0.284343 0.391864 0.439918 -0.808031
-0.220714 -0.152314 0.011957 0.296164 -0.205251 -0.932823
0.042440 0.038639 0.107636 -0.074436 -0.914707 0.397204
0.088460 0.020006 -0.019659 0.593642 -0.594289 -0.542595
-0.005093 -0.071022 -0.294394 0.373390 0.219244 -0.901395
-0.041496 -0.163723 -0.215790 -0.014845 -0.780787 0.624621
-0.373279 -0.266311 -0.064967 0.469154 0.258800 -0.844344
0.217384 0.115696 -0.164999 -0.318575 -0.860873 -0.396747
0.527834 0.166729 -0.179345 0.327928 0.750160 -0.574216
0.418167 0.203041 -0.186174 0.173673 0.984375 0.029047
0.026836 -0.119123 -0.215574 0.875185 -0.396661 0.276969
0.573211 0.094738 -0.111696 -0.618700 -0.119191 0.776533
-0.208166 -0.363506 -0.350513 -0.493054 -0.733599 -0.467686
0.092976 0.031828 0.039951 0.680965 -0.696660 0.225726
-0.247658 -0.027278 0.027101 -0.836157 0.224742 -0.500332
0.078379 0.017641 0.040592 0.509873 -0.801853 0.311547
-0.109556 0.284745 0.013586 -0.947003 0.280292 0.156911
0.018754 -0.121304 -0.281305 0.797032 -0.196491 -0.571079
-0.156165 0.025405 0.107498 0.032404 0.900381 0.433894
0.384453 0.168472 -0.261059 -0.106520 0.318854 -0.941799
-0.253898 -0.308885 -0.385803 -0.261907 0.179959 -0.948167
-0.055583 0.190618 -0.125493 -0.175726 0.556176 -0.812274
0.305620 0.303864 0.246344 -0.028679 0.948248 -0.316233
-0.378950 -0.181163 -0.033939 -0.462394 0.674586 -0.575435
-0.338694 -0.179488 0.084565 -0.461408 -0.036035 0.886456
0.035351 0.113606 0.268989 0.616687 -0.785306 -0.054705
-0.305732 -0.407957 0.041857 0.493400 -0.161797 -0.854622
0.266274 0.043825 0.104973 -0.059214 -0.869660 -0.490087
0.222195 0.134776 -0.024975 0.908785 -0.162783 0.384201
-0.393679 -0.332554 -0.066575 -0.354753 -0.821185 -0.446997
-0.190616 -0.263800 -0.256182 -0.285708 -0.500154 0.817446
-0.048909 0.321789 -0.089480 -0.729379 0.392609 -0.560237
-0.157199 -0.290589 -0.282943 0.176808 -0.829696 0.529475
0.007174 0.222542 0.413369 -0.780741 0.592591 0.198188
0.029512 -0.027305 0.006106 0.683327 -0.708049 0.178130
0.000433 0.325682 -0.126562 -0.272241 0.576374 -0.770505
-0.062022 0.372535 0.039865 -0.800614 0.595739 0.064125
0.063044 0.037467 0.083949 0.238103 -0.970144 -0.046130
0.279838 0.273401 0.171334 0.520113 0.744806 0.418027
-0.119895 0.039648 0.101012 -0.209228 0.406567 0.889340
-0.045324 0.180548 0.303654 -0.961667 0.109619 0.251358
0.157674 0.216883 0.209413 0.269479 0.315397 0.909893
0.574066 0.041533 -0.120425 -0.946546 0.294886 0.130741
-0.052084 0.170082 0.246563 -0.907653 -0.324658 0.266012
0.184249 0.222386 0.511859 -0.176080 0.522564 0.834220
-0.021380 -0.067668 -0.034726 0.355187 -0.932796 -0.061104
-0.116921 0.158666 -0.092986 -0.574715 0.602430 -0.553877
0.037186 -0.097390 -0.246485 0.988354 -0.041643 -0.146364
0.272399 0.101213 0.190379 -0.054466 0.252352 0.966101
-0.157411 -0.223018 -0.223671 -0.414402 -0.153905 0.896986
0.196233 0.084108 -0.053804 0.624047 -0.693979 -0.359108
0.129135 0.176912 0.514861 -0.556050 0.422920 0.715504
0.354308 0.275800 0.063097 -0.423860 0.490493 -0.761419
-0.379855 -0.334825 0.062279 0.699512 0.257360 0.666670
0.027157 0.316657 0.197238 -0.201702 0.412458 0.888366
0.374953 0.261338 0.120505 -0.071204 0.173512 0.982254
0.595524 0.085607 -0.102762 0.938834 -0.148254 0.310822
0.161836 0.194154 0.172161 0.657138 -0.667325 0.350497
-0.411505 -0.260459 -0.089315 0.324522 0.642001 -0.694637
-0.174216 0.054092 0.062155 -0.627255 0.558286 0.543018
-0.358402 -0.152738 0.054494 -0.788357 0.440445 0.429536
-0.381251 -0.199224 0.051190 -0.755899 0.149937 0.637288
-0.449835 -0.306441 -0.044318 -0.582642 -0.750052 -0.312968
0.192618 0.412420 0.079743 0.397908 0.825366 0.400549
0.313645 0.304231 0.305725 -0.896019 0.354273 0.267658
0.479458 0.054199 -0.192600 -0.611541 -0.786514 -0.086099
-0.077820 -0.231660 -0.246292 0.673805 -0.630782 0.384839
-0.415945 -0.207789 -0.009486 -0.918919 0.338726 0.202119
0.273284 0.305940 0.011305 0.763159 0.566968 -0.310059
0.137655 0.113780 0.429300 0.945962 -0.203792 -0.252240
-0.030840 0.137415 0.270769 -0.782468 -0.622675 0.004366
0.197747 0.176379 0.480358 0.538572 -0.353775 -0.764711
-0.248989 -0.172610 -0.011015 0.674504 0.273714 -0.685657
-0.360850 0.066352 -0.190355 -0.687442 0.694157 0.213468
-0.181569 -0.359627 -0.416417 -0.380941 -0.923841 0.037442
0.006456 -0.145153 -0.217642 0.675114 -0.628653 0.386027
0.313328 0.084103 0.088282 -0.087216 -0.198131 -0.976288
-0.198171 0.042228 -0.010382 -0.879370 0.438033 -0.186641
0.068200 0.061119 0.142622 -0.008027 -0.719789 0.694146
-0.239323 -0.315413 -0.296978 -0.021747 -0.347429 0.937454
-0.177439 -0.083420 -0.007635 0.257533 -0.341972 -0.903732
0.296947 0.204061 0.204024 0.762747 -0.140353 0.631282
-0.179520 0.063175 -0.038223 -0.944055 0.325137 -0.055189
0.257433 0.104126 -0.173532 -0.401599 -0.908625 -0.114533
-0.155964 -0.165766 -0.351931 -0.288548 0.516116 -0.806451
-0.059075 0.330447 -0.067420 -0.741544 0.448615 -0.498856
-0.071864 0.325947 -0.051455 -0.814906 0.391744 -0.427159
-0.046851 -0.078123 -0.028030 0.153721 -0.855204 0.494970
-0.061728 0.353309 -0.020072 -0.787196 0.503699 -0.355824
0.056901 0.441248 0.001272 -0.144364 0.981970 -0.122043
-0.105071 0.182214 0.090631 -0.731408 -0.665040 -0.150875
0.105692 0.390038 -0.088558 -0.031497 0.659940 -0.750658
0.186528 0.115705 0.095068 0.128202 -0.949552 0.286208
0.215150 0.377015 -0.013552 0.811484 0.414119 -0.412309
0.246634 0.339845 0.011944 0.677524 0.316866 -0.663744
-0.044551 0.168715 0.273833 -0.961917 -0.242684 0.125781
0.070369 0.212618 0.256428 0.803636 0.474307 0.359447
0.499300 0.129964 -0.215935 0.408608 0.266654 -0.872889
-0.110119 0.183952 0.056440 -0.961417 0.263717 0.078301
0.385581 0.256081 0.091854 0.151521 -0.805264 -0.573228
0.029699 0.351831 -0.122368 -0.187299 0.588673 -0.786373
-0.025441 0.129303 0.257957 -0.651011 -0.754070 -0.086967
-0.128665 -0.347789 -0.387977 0.650269 0.601716 -0.463776
0.158568 0.212493 -0.183232 -0.594730 0.380738 -0.708050
-0.211019 -0.255364 -0.364848 -0.384643 0.322932 -0.864734
0.287653 0.250758 0.027870 0.908326 0.056259 -0.414463
0.101253 0.194058 0.478918 -0.158348 0.403666 0.901099
-0.152138 0.011906 0.125259 0.185956 0.643742 0.742305
0.272104 0.207329 0.506051 0.930024 0.271375 0.247813
-0.021068 0.335149 -0.105167 -0.607515 0.615695 -0.501842
0.019582 0.125134 0.203152 -0.060544 -0.974332 -0.216822
-0.061301 0.317501 0.136743 -0.715338 0.339649 0.610680
0.083666 0.140292 0.482499 -0.210131 -0.399127 0.892492
0.231442 0.136398 0.048376 0.495847 -0.645166 -0.581289
0.223553 0.085728 0.115533 -0.764665 -0.644396 0.006484
-0.406371 -0.371376 0.071828 -0.347019 -0.930471 -0.117481
-0.040767 -0.116598 -0.308344 0.029809 0.205876 -0.978124
-0.208394 -0.021348 0.138301 -0.456579 0.481283 0.748266
-0.141894 0.164639 -0.051165 -0.715640 0.546385 -0.435112
-0.069039 0.299731 -0.081153 -0.770911 0.309064 -0.556935
0.072478 0.233886 0.375627 0.051505 0.930819 -0.361832
-0.075046 0.301897 0.129731 -0.751374 0.297914 0.588800
-0.083079 0.146387 0.100951 -0.761167 -0.218237 0.610734
-0.037464 0.382769 0.093213 -0.592953 0.724256 0.351937
0.083967 0.089853 0.378741 0.178829 -0.969553 -0.167293
0.039516 0.216740 0.316750 0.514307 0.844224 -0.150911
-0.093657 0.185834 -0.104723 -0.768963 0.296032 -0.566622
0.127587 0.130797 0.497958 -0.576502 -0.791440 0.203147
0.141669 0.077179 0.096517 0.854033 -0.500860 0.140595
0.068952 0.128790 0.318652 0.214068 -0.463970 -0.859597
0.014154 0.109358 0.380559 -0.787109 -0.605785 0.116115
-0.194875 -0.192134 0.129109 0.810336 -0.234565 0.536968
-0.032169 0.044252 -0.228469 0.148443 0.972009 -0.182107
0.356264 0.144110 -0.263182 -0.636667 0.151561 -0.756098
-0.116807 -0.270066 -0.273763 0.376230 -0.867216 0.326171
0.000140 0.338690 -0.119616 -0.475405 0.481185 -0.736513
-0.274640 -0.109393 0.027918 -0.485068 0.673606 -0.557642
-0.066748 0.179967 -0.130455 -0.519978 0.031232 -0.853608
0.074404 0.160339 0.486267 -0.287098 -0.103926 0.952247
0.134123 0.311321 0.182295 0.155309 0.404354 0.901320
-0.340329 -0.407198 0.104301 0.741133 0.399242 0.539747
-0.135676 0.071328 0.077483 -0.347353 0.477994 0.806763
0.330902 0.104504 0.132698 0.972193 0.122378 -0.199662
0.165448 0.166576 0.458830 0.588750 -0.454621 -0.668351
0.064179 0.176731 0.481905 -0.100726 0.072035 0.992303
0.380083 0.071287 -0.212972 -0.230245 -0.908613 -0.348439
0.221029 0.376509 -0.000057 0.806589 0.492496 -0.326896
0.133495 0.063595 0.091705 0.748099 -0.630876 0.205776
0.070257 0.095971 -0.111729 0.217668 -0.249445 -0.943609
-0.104752 0.070772 0.087641 -0.330172 0.210425 0.920167
-0.437056 -0.338645 0.041828 -0.893985 -0.353459 0.275422
-0.371892 -0.340957 -0.053584 0.638581 -0.570626 -0.516334
-0.119829 -0.135412 -0.249939 -0.842541 0.447446 0.299860
-0.357806 -0.271451 0.035473 -0.014630 -0.674611 0.738029
0.049456 0.393178 0.154081 -0.129323 0.700867 0.701471
0.079204 0.185127 0.323157 0.260334 0.232370 -0.937140
-0.359344 0.066788 -0.199030 -0.478294 0.799526 -0.363309
-0.165978 0.099213 -0.056842 -0.926649 0.182629 -0.328584
0.226610 0.130436 -0.048965 0.898652 -0.430100 -0.086250
0.060725 0.080215 0.163596 -0.102071 -0.729320 0.676516
0.122297 0.186620 0.502928 -0.590095 0.454997 0.666908
-0.149066 -0.293649 -0.340253 0.673497 -0.635633 -0.377322
0.329743 0.029277 0.192202 0.072787 -0.589859 0.804219
0.287171 0.320275 0.048590 0.987047 0.118808 -0.107806
0.142031 0.216771 0.498300 -0.476352 0.471379 0.742221
-0.440946 -0.326449 0.016503 -0.994660 -0.033171 0.097730
-0.053289 0.193509 0.156528 -0.899125 -0.110375 0.423547
0.122417 0.440934 0.049427 0.208536 0.974843 0.078703
0.004391 0.024100 0.061181 -0.051249 -0.751293 0.657976
-0.294942 -0.204473 0.107490 -0.458664 -0.311592 0.832188
0.547667 0.048781 -0.190810 0.886765 0.067053 -0.457331
0.033249 -0.032741 -0.228641 0.948061 0.296242 -0.115846
0.086200 0.438648 0.073557 -0.210551 0.916372 0.340487
0.194352 0.146266 0.498085 0.676200 -0.332661 -0.657336
0.278097 0.242749 0.221005 0.491557 -0.740676 0.458007
0.249264 0.149659 -0.092257 0.452910 -0.387583 0.802902
0.249690 0.360618 0.087942 0.643366 0.704253 0.300179
0.343171 0.229062 0.088140 0.724943 -0.007365 -0.688769
-0.295729 -0.163674 0.097558 -0.457567 0.386234 0.800910
-0.393617 -0.324843 -0.080399 0.293343 -0.821979 -0.488160
0.311354 0.026562 0.172278 -0.357449 -0.925580 0.124630
-0.243823 0.024735 -0.090279 -0.426861 0.087623 0.900062
-0.002739 0.082306 0.129401 -0.418383 -0.704620 0.573120
0.351537 0.173286 -0.249412 -0.638937 0.316064 -0.701329
-0.159346 -0.141263 -0.282743 -0.495797 0.851666 0.169855
-0.370261 -0.224930 0.059168 -0.495320 -0.226061 0.838782
-0.183431 -0.174782 0.122969 0.461072 -0.748198 0.477088
0.105835 0.192506 0.337459 0.483921 0.284047 -0.827731
-0.160164 -0.320582 -0.423282 0.103797 0.921778 -0.373567
-0.031205 0.022373 0.072713 0.316430 -0.451411 0.834326
0.202892 0.133533 0.018051 0.792200 -0.607962 0.052930
-0.124963 -0.081417 -0.164297 -0.790697 -0.444012 0.421488
0.229305 0.221588 -0.198452 0.066228 0.655068 -0.752662
0.049111 0.007255 -0.064408 0.882647 -0.464427 -0.072402
0.350470 0.089577 -0.231701 -0.214535 -0.694006 -0.687263
-0.004607 0.396225 0.115028 -0.654170 0.602899 0.456699
0.342677 0.052616 0.182277 0.429859 0.584621 0.688069
0.104052 0.272214 0.219558 -0.148300 0.239025 0.959622
0.157670 0.291922 0.196037 -0.161919 0.474898 0.865017
-0.137979 -0.348594 -0.333915 0.829587 0.398074 0.391565
0.207630 0.386816 -0.015939 0.690049 0.578529 -0.434899
0.359703 0.054205 0.167930 0.888941 0.452514 -0.070814
-0.246682 -0.023061 0.026871 -0.826629 0.344168 -0.445233
-0.214017 -0.209192 0.064430 0.530707 -0.720959 -0.445609
-0.015377 0.321324 -0.123675 -0.429305 0.454624 -0.780394
0.331513 0.217029 0.147923 0.765788 0.528488 0.366427
0.578415 0.039200 -0.144440 0.272478 -0.858316 -0.434798
-0.109194 -0.381760 -0.413372 0.245141 0.533339 -0.809602
-0.066185 -0.064305 -0.105319 -0.186956 -0.864454 0.466654
0.264306 0.230869 0.220791 0.010030 -0.623273 0.781940
0.040024 0.123831 0.253584 0.779494 -0.604199 -0.165328
0.069194 0.155021 -0.142636 -0.179742 -0.492053 -0.851808
0.212411 0.116314 0.003270 0.823216 -0.008557 0.567663
-0.040379 0.320916 0.151325 -0.477188 0.280999 0.832666
-0.130861 -0.138135 0.097825 0.816256 -0.549645 0.177808
-0.150572 0.124829 -0.072486 -0.792733 0.524241 -0.311041
0.568368 0.047359 -0.130969 -0.708004 0.072931 0.702433
0.187171 0.131836 0.538888 -0.094932 -0.219343 0.971018
-0.311112 -0.407491 0.038593 -0.069825 -0.390412 -0.917988
0.227536 0.279587 -0.102301 0.698981 0.189627 -0.689541
0.140250 0.051328 0.032040 0.036915 -0.861929 0.505683
0.310634 0.102815 -0.153257 -0.506438 -0.731739 0.456157
-0.038586 0.016150 -0.266303 0.011675 0.638588 -0.769460
0.140147 0.038765 0.007622 0.155177 -0.970123 0.186497
-0.013293 0.143314 0.335327 -0.878430 -0.327033 0.348441
-0.122187 -0.029211 -0.052994 -0.091889 -0.506447 -0.857361
-0.011438 0.177542 0.393218 -0.994815 -0.022757 -0.099123
-0.114186 -0.268121 -0.271815 0.338165 -0.864926 0.370873
0.123428 0.264885 0.207995 0.331648 -0.290970 0.897411
0.301063 0.150263 0.043496 0.219739 -0.434468 -0.873472
0.366794 0.185044 -0.125261 -0.138973 0.706093 0.694349
-0.025821 -0.068065 -0.022444 0.322090 -0.848056 0.420785
-0.050767 0.217582 0.234135 -0.903652 0.284625 0.320004
0.069117 0.012777 0.044492 0.466854 -0.791668 0.394092
-0.188168 -0.193875 -0.254203 -0.662144 0.326048 0.674729
0.107688 0.097268 -0.110457 0.086632 -0.619993 -0.779810
0.070569 0.101276 -0.116145 0.192559 -0.479114 -0.856370
-0.105480 0.006706 0.109118 0.426766 0.156814 0.890663
0.300431 0.134260 -0.127186 0.275000 -0.550306 0.788377
-0.316228 -0.264887 0.040685 0.140241 -0.988185 0.061833
-0.410605 -0.370727 0.081636 -0.624965 -0.767625 -0.142025
0.381584 0.185400 -0.128027 0.000252 0.716430 0.697659
0.185028 0.417330 0.014340 0.426747 0.840636 -0.333494
0.015265 0.011905 -0.202327 0.808409 0.588617 -0.002352
0.109987 0.264819 -0.159713 0.190127 -0.168670 -0.967162
-0.057931 0.311148 0.143245 -0.616921 0.348569 0.705626
0.037354 -0.000973 0.039752 0.527519 -0.674904 0.515973
0.332734 0.037907 0.196726 0.380832 -0.175164 0.907901
0.302425 0.248490 0.047824 0.753863 0.404400 -0.517834
-0.065619 0.099671 -0.157858 -0.256966 0.594487 -0.761941
0.138636 0.115408 0.432507 0.991797 0.121992 0.038174
0.463715 0.168400 -0.220385 0.715071 0.504732 -0.483651
-0.191013 -0.095093 -0.009424 0.444849 -0.386245 -0.808037
0.079021 0.012961 0.027506 0.524880 -0.827878 0.197785
0.082654 0.125375 0.322978 0.507188 -0.258146 -0.822266
0.194855 0.256476 0.186337 -0.046386 0.480638 0.875691
0.504446 0.035834 -0.206855 -0.071605 -0.832973 -0.548660
-0.098528 -0.402924 -0.420388 0.097975 0.357770 -0.928656
-0.407684 -0.377385 0.099791 -0.405361 -0.645005 0.647805
0.557243 0.130972 -0.136802 0.872522 0.467725 0.141203
0.267664 0.182829 0.024882 -0.116929 -0.986936 0.110839
-0.394565 -0.376592 0.085956 0.266465 -0.936946 -0.226116
0.059742 0.094502 0.406748 -0.353145 -0.921893 0.159379
0.329242 0.275416 0.229027 0.857815 0.121241 -0.499453
-0.013238 -0.067467 -0.296814 0.216063 0.190534 -0.957608
0.145136 0.112498 -0.109172 0.300807 -0.403155 -0.864281
0.335867 0.158222 0.088135 0.663724 -0.250330 -0.704844
0.064217 0.100782 0.427649 -0.271231 -0.882878 0.383353
0.073382 0.114459 0.452876 -0.395334 -0.787163 0.473376
0.240153 0.310536 -0.015481 0.774616 0.278504 -0.567807
0.123401 0.045814 -0.050112 0.134305 -0.836829 -0.530735
-0.307473 -0.378336 0.035390 0.934735 0.350931 0.055844
-0.364339 -0.235847 -0.066677 0.095191 0.010008 -0.995409
-0.150902 -0.403192 -0.359696 -0.450242 -0.871902 -0.192534
-0.106697 -0.368106 -0.400157 0.738148 0.664140 -0.118557
0.004850 0.319862 -0.133449 -0.183343 0.514666 -0.837559
0.056273 0.006465 0.029040 0.358370 -0.924108 0.132645
0.335035 0.082354 -0.158764 -0.399664 -0.768617 0.499496
-0.221084 -0.316107 -0.399711 -0.206399 0.427447 -0.880164
0.207572 0.146974 -0.200080 -0.221546 -0.564492 -0.795151
-0.271068 -0.202551 0.112841 -0.058623 -0.356095 0.932609
-0.189639 -0.292230 -0.280062 -0.066225 -0.723333 0.687316
0.237793 0.204685 0.488318 0.347068 -0.467604 -0.812952
-0.175804 -0.365316 -0.405605 -0.602901 -0.768885 -0.212900
-0.011102 0.141611 0.338638 -0.886404 -0.317249 0.337106
-0.072340 0.218582 0.139966 -0.531375 -0.050124 0.845653
-0.128385 -0.371139 -0.331632 0.775247 0.096112 0.624303
-0.247480 -0.341403 -0.341793 -0.486593 -0.747506 -0.452175
-0.088383 0.328094 0.073983 -0.974048 0.194194 0.116272
0.238820 0.376574 0.053783 0.464861 0.877790 -0.115713
0.062834 0.236029 0.395433 -0.130131 0.981684 -0.139150
-0.011557 0.048868 -0.198271 0.553956 0.635662 -0.537649
0.258520 0.298058 -0.014618 0.602586 0.614453 -0.509252
0.169109 0.089178 -0.084430 0.442426 -0.585363 -0.679418
-0.034840 -0.209819 -0.268596 0.751465 -0.554494 0.357543
-0.137930 -0.154070 -0.349950 -0.206952 0.452169 -0.867591
-0.283577 -0.206908 -0.045677 0.417749 0.003900 -0.908554
0.020734 -0.064311 -0.276295 0.694506 0.346267 -0.630682
0.109442 0.048565 0.040086 0.521952 -0.820855 0.231868
0.164683 0.132571 0.128236 0.317042 -0.781684 0.537079
0.065642 0.237260 0.406762 -0.218457 0.975825 0.006502
0.168930 0.173216 0.530295 -0.051666 0.125085 0.990800
0.372482 0.298849 0.079995 -0.484837 0.860126 -0.158484
0.367731 0.098072 -0.156035 -0.299018 -0.357712 0.884664
-0.068126 0.240673 -0.109859 -0.702456 -0.040883 -0.710552
0.351271 0.193093 0.098113 0.923385 -0.350526 -0.156500
-0.020717 0.071034 -0.177504 0.384171 0.754663 -0.531880
0.046785 -0.005204 0.021166 0.686019 -0.682302 0.252669
0.020354 0.110540 0.348366 -0.603565 -0.780324 -0.163719
-0.343927 -0.397658 0.102741 0.531176 0.391268 0.751506
0.106037 0.171853 0.362336 0.622142 -0.157475 -0.766904
0.038093 -0.066350 -0.198114 0.995136 -0.012416 0.097729
0.036261 0.115175 0.284688 0.548360 -0.825125 -0.135903
-0.005132 0.261855 0.242121 -0.347936 0.905859 0.241579
-0.098876 -0.256806 -0.278186 0.742841 -0.666341 -0.064623
0.184991 0.184661 0.530079 0.020831 0.376740 0.926085
-0.035198 -0.030600 -0.289641 0.012871 0.330313 -0.943784
-0.118555 -0.040593 -0.049277 -0.032564 -0.356325 -0.933795
0.271965 0.279084 0.181628 0.365487 0.929921 -0.040820
-0.153354 -0.384820 -0.406293 -0.485143 -0.754150 -0.442599
-0.101182 0.237839 -0.039740 -0.920737 0.287828 -0.263436
-0.394678 -0.260549 -0.082353 0.436520 0.568103 -0.697646
-0.224242 0.005908 0.015136 -0.661317 0.470182 -0.584457
0.062468 0.095239 0.417814 -0.246302 -0.903608 0.350467
0.064444 0.378995 -0.100286 -0.156786 0.663969 -0.731138
-0.249996 -0.010199 0.071421 -0.866020 0.457028 0.202818
-0.377145 -0.336398 0.059931 0.582787 0.221215 0.781935
0.250261 0.111470 -0.181577 -0.434802 -0.851737 -0.292390
-0.147620 -0.092037 0.001619 0.391101 -0.552584 -0.735997
0.288663 0.112884 -0.199113 -0.260640 -0.866825 -0.425066
-0.144802 -0.053825 -0.025531 -0.206634 -0.764763 -0.610279
-0.126747 -0.018704 0.130674 0.553450 0.359635 0.751236
-0.191778 -0.168146 0.037949 0.556557 -0.543526 -0.628350
-0.264885 -0.283590 -0.302188 -0.093262 0.552304 0.828410
-0.086052 0.330371 -0.011068 -0.882021 0.425155 -0.203180
0.532303 0.125988 -0.199316 0.378977 0.161606 -0.911186
-0.164924 -0.066361 -0.014530 0.086600 -0.392442 -0.915691
-0.172453 -0.300777 -0.290156 0.315352 -0.869865 0.379325
0.248157 0.166870 0.028292 0.918557 -0.364153 -0.153770
-0.238514 -0.245864 -0.297145 -0.785153 0.313217 0.534257
-0.078924 0.265917 -0.067811 -0.823590 -0.525236 0.214072
-0.334408 -0.390508 0.083332 0.947513 0.188974 0.257890
0.026576 0.345898 -0.125900 -0.205310 0.560333 -0.802418
0.432338 0.304698 0.088626 0.352755 0.768793 0.533405
0.381505 0.161367 -0.115806 0.016201 -0.083289 0.996394
0.119886 0.129654 0.410676 0.834404 -0.333361 -0.438908
-0.234533 0.043624 -0.094001 -0.359430 0.720376 0.593185
-0.026263 0.302756 0.170413 -0.501011 0.224080 0.835928
0.269284 0.157767 0.052556 -0.197512 -0.607556 -0.769327
0.122929 0.200097 0.352518 0.658793 0.301208 -0.689395
0.063566 0.442804 0.008940 -0.122762 0.988391 -0.089508
0.153135 0.043772 0.009639 0.377818 -0.892759 0.245428
0.435110 0.091254 -0.157276 0.057859 -0.611684 0.788984
0.066555 0.119848 0.457544 -0.415667 -0.776090 0.474242
-0.101561 -0.078150 -0.276873 -0.697623 0.181548 -0.693082
0.200349 0.411705 0.061854 0.602447 0.795260 0.067966
-0.379532 -0.241250 -0.067602 0.148253 0.119892 -0.981655
-0.035377 0.012880 0.070269 0.501891 -0.372606 0.780558
-0.064162 -0.056348 0.047873 0.591119 -0.690010 0.417690
-0.197114 -0.297761 -0.395435 -0.054522 0.669532 -0.740779
0.092767 0.132295 -0.132939 0.099110 -0.457024 -0.883915
-0.018448 -0.068126 -0.298162 0.168972 0.278685 -0.945401
0.077868 0.140170 0.479979 -0.297140 -0.419907 0.857547
-0.046143 0.237509 0.177337 -0.910691 0.295698 0.288451
-0.179532 0.062060 -0.108231 -0.258934 0.838969 -0.478627
0.259698 0.212943 -0.202622 -0.088113 0.719639 -0.688735
0.578259 0.051779 -0.156335 0.753183 -0.390187 -0.529593
0.099934 0.095543 -0.110273 0.066424 -0.564037 -0.823074
0.282480 0.216914 -0.124309 0.538969 0.710098 0.453071
0.477817 0.103524 -0.222193 0.126974 0.014508 -0.991800
-0.268190 -0.248514 0.067592 0.254244 -0.921482 0.293652
-0.190180 -0.193666 0.076401 0.681779 -0.711468 -0.170268
-0.078563 0.352596 0.051563 -0.782440 0.616850 -0.085346
-0.008497 0.393897 0.111308 -0.602416 0.635315 0.483186
-0.144353 -0.144712 -0.342229 -0.336003 0.631398 -0.698883
-0.236354 0.000596 0.086777 -0.784595 0.528686 0.323884
0.181180 0.265765 -0.133137 0.588857 0.627427 -0.509492
0.201772 0.237868 0.195270 -0.135404 0.221471 0.965721
0.007879 -0.182174 -0.269052 0.557917 -0.728574 0.397376
-0.076444 0.328385 0.100347 -0.778370 0.366489 0.509731
0.218816 0.359201 -0.015470 0.847265 0.228381 -0.479567
-0.428025 -0.308551 -0.064503 -0.415794 -0.886378 -0.203592
-0.255789 -0.323340 -0.387068 -0.405142 -0.360764 -0.840065
0.110006 0.093177 -0.106868 0.157403 -0.599129 -0.785028
0.102423 0.072565 -0.093732 -0.065466 -0.867418 -0.493255
0.219269 0.187432 0.527339 0.183551 0.662179 0.726518
0.061433 0.442178 0.005817 -0.123501 0.985222 -0.118682
-0.054850 0.061269 -0.203930 -0.042011 0.785774 -0.617086
-0.295872 -0.252939 0.066998 0.040039 -0.685894 0.726599
0.207356 0.158485 0.523330 0.378692 -0.438152 0.815239
0.010660 0.181472 -0.142234 -0.268086 -0.359255 -0.893905
0.206177 0.233540 0.197084 -0.026112 0.236372 0.971312
-0.221253 -0.355861 -0.348600 -0.508728 -0.774874 -0.375188
-0.000131 -0.046673 -0.090732 0.650215 -0.710473 0.269163
0.261339 0.180255 0.199693 0.183080 -0.144595 0.972406
0.254529 0.301564 -0.018962 0.766201 0.368653 -0.526337
0.164055 0.232700 0.494395 -0.120840 0.662373 0.739365
0.177167 0.204024 0.516078 -0.068241 0.600306 0.796854
0.038699 0.217626 0.297335 0.561734 0.743848 0.362139
-0.301820 0.044867 -0.132057 -0.434093 0.418265 0.797883
0.402039 0.099778 -0.247607 -0.015493 -0.591898 -0.805864
0.115476 0.050404 0.026678 -0.068135 -0.986068 0.151750
-0.164749 0.118441 -0.042638 -0.898544 0.295546 -0.324456
-0.230097 -0.257352 -0.280163 -0.743246 0.191792 0.640937
0.210438 0.175444 0.173781 -0.620757 -0.555906 0.552837
0.254129 0.242393 -0.134346 0.558656 0.813168 0.163284
-0.117283 0.074403 -0.150326 -0.652264 0.518924 -0.552512
0.029784 0.331914 -0.136982 -0.408175 0.503237 -0.761673
-0.002287 0.130823 0.198147 -0.402770 -0.887678 -0.223169
-0.172969 -0.305048 -0.306378 0.429059 -0.802114 0.415358
-0.212252 -0.365278 -0.342096 -0.516331 -0.712635 -0.474926
0.010379 0.077952 0.134559 -0.468655 -0.568290 0.676320
-0.120480 0.241922 0.035227 -0.981408 0.159993 0.106017
0.272771 0.114496 -0.136178 0.187668 -0.749682 0.634632
0.103296 0.229884 0.454797 0.188356 0.756031 0.626849
-0.161433 0.116958 0.016572 -0.928145 0.041030 0.369950
0.280226 0.063046 0.090153 0.106623 -0.473431 -0.874354
-0.025253 0.139564 0.163404 -0.646637 -0.689079 0.327157
-0.173422 -0.041896 0.153124 0.079019 0.364865 0.927701
0.080269 0.113269 -0.124285 0.083136 -0.510964 -0.855573
-0.332882 0.064995 -0.160830 -0.387557 0.688166 0.613374
0.233750 0.145089 -0.018486 0.726956 -0.672215 0.140220
-0.054529 -0.047561 0.048622 0.595689 -0.652158 0.468876
-0.119159 -0.011353 -0.241344 -0.794144 0.205587 -0.571900
0.181119 0.232506 0.500447 -0.190459 0.806553 0.559640
-0.023570 -0.058444 -0.074066 0.466476 -0.884313 0.019757
-0.079053 0.213568 0.135707 -0.580599 -0.064120 0.811661
-0.413533 -0.315499 0.053832 -0.485473 0.742422 0.461654
0.293032 0.273302 0.255783 0.161453 -0.830535 0.533051
0.038573 -0.062516 -0.214455 0.989380 0.092038 0.112499
0.156534 0.184795 0.526952 -0.176931 0.415193 0.892362
0.034802 -0.064728 -0.172810 0.928789 -0.136243 0.344659
-0.349535 -0.345600 0.062499 0.215920 0.864334 0.454209
-0.386754 -0.174126 -0.008227 -0.663047 0.739919 -0.113532
0.307498 0.125979 -0.135917 0.054755 -0.720449 0.691343
0.282225 0.042127 0.137523 0.220751 -0.901133 0.373134
-0.109145 0.159158 0.074643 -0.761805 0.046183 0.646158
0.550268 0.038319 -0.189380 0.858200 0.062326 -0.509518
-0.354109 0.051451 -0.212192 0.389185 0.199036 -0.899400
0.311068 0.157662 -0.125657 0.177967 -0.396099 0.900796
-0.459894 -0.279641 -0.063779 -0.897245 0.392276 0.202659
0.419842 0.092715 -0.156366 0.041169 -0.555188 0.830706
-0.258731 -0.304915 -0.382962 -0.320851 0.331555 -0.887201
0.173147 0.265758 -0.138771 0.092693 0.475214 -0.874974
-0.288116 -0.250253 -0.023727 0.514235 -0.599588 -0.613234
-0.038657 -0.063752 -0.300165 -0.090778 0.317934 -0.943757
0.442672 0.107295 -0.244459 0.492572 -0.323273 -0.808002
-0.194587 -0.368947 -0.359390 -0.522130 -0.748945 -0.407998
-0.171974 0.102991 -0.032853 -0.984959 0.096625 -0.143247
-0.110877 0.015435 -0.229987 -0.678037 0.571612 -0.462089
0.169661 0.322219 -0.124341 0.473467 0.387641 -0.790926
0.390051 0.252057 0.095444 -0.050158 -0.587635 -0.807570
-0.084954 0.298246 0.113898 -0.909782 0.335584 0.244296
0.267364 0.237393 -0.013175 0.931132 0.227704 -0.284857
-0.422442 -0.269208 0.000018 -0.760347 0.359980 0.540636
0.207847 0.129452 0.041324 0.408374 -0.817396 -0.406319
-0.035026 0.322554 -0.100800 -0.492931 0.457755 -0.739918
-0.124459 -0.194765 -0.362970 0.189740 0.089522 -0.977745
0.096851 0.060169 0.137931 0.275976 -0.732869 0.621885
0.551710 0.163480 -0.107976 -0.801423 0.295509 0.519996
0.037167 0.219255 0.320384 0.437715 0.889982 -0.127816
-0.186255 0.018937 -0.054502 -0.847262 -0.017454 0.530888
-0.096439 0.316657 0.016419 -0.933598 0.355642 -0.043740
0.105546 0.442256 0.003542 0.358123 0.921543 -0.150024
-0.085924 0.324461 -0.021650 -0.888312 0.346602 -0.301280
0.252373 0.176510 -0.070242 0.879817 -0.419059 -0.224305
-0.032459 -0.068280 -0.018620 0.236505 -0.828454 0.507671
0.342279 0.209719 -0.187915 -0.118748 0.992186 0.038295
0.127716 0.212682 0.218859 0.382352 0.405605 0.830236
-0.194966 -0.296820 -0.287033 -0.075106 -0.730067 0.679235
-0.010768 -0.157461 -0.211865 0.392309 -0.724779 0.566383
0.097787 0.042712 0.049371 0.626242 -0.715288 0.310137
0.058910 0.405219 -0.072009 -0.129270 0.716560 -0.685443
-0.004231 -0.062577 -0.038755 0.693083 -0.677689 -0.245710
0.350129 0.200721 -0.149965 -0.123306 0.764031 0.633287
-0.132412 -0.394993 -0.384188 0.012393 -0.951639 0.306968
0.275750 0.186775 -0.095693 0.457646 0.219096 0.861718
-0.033667 -0.014660 -0.282515 0.166881 0.431678 -0.886457
0.088160 0.101127 0.350625 0.640119 -0.603291 -0.475697
-0.249609 -0.310124 -0.387878 -0.308238 0.214096 -0.926905
-0.152143 -0.320715 -0.420094 0.242896 0.899827 -0.362372
0.190516 0.231411 0.198852 0.309875 0.225351 0.923685
-0.139273 -0.141883 0.116775 0.820661 -0.505394 0.266630
0.191370 0.311646 0.187221 -0.298037 0.399115 0.867111
0.232367 0.195993 0.502145 0.177808 -0.960437 0.214346
0.059373 0.216066 0.274138 0.628534 0.592409 0.503981
-0.375542 -0.204543 -0.058059 -0.145123 0.547007 -0.824453
-0.107840 -0.205823 -0.355535 0.424343 -0.108747 -0.898948
-0.214230 -0.213294 0.080876 0.430298 -0.900947 -0.056010
-0.306939 -0.306892 -0.327180 -0.926828 -0.314236 -0.205537
-0.004012 0.130968 0.202104 -0.353677 -0.892545 -0.279780
0.020553 0.429806 0.009552 -0.455932 0.871580 -0.180205
-0.338282 -0.142969 0.067781 -0.409032 0.666397 0.623385
-0.201301 -0.198390 0.063550 0.591286 -0.708386 -0.385449
-0.136310 0.000878 -0.179211 -0.944454 0.276500 -0.177636
-0.173832 -0.104814 0.153912 0.306389 -0.036204 0.951218
0.177399 0.103517 0.039929 0.685960 -0.195963 0.700755
-0.135875 0.187749 0.017747 -0.761353 0.544246 0.352331
-0.165839 -0.173180 0.067516 0.598721 -0.711071 -0.368661
-0.265565 0.017657 -0.163838 0.350585 -0.401827 -0.845946
-0.142665 -0.396724 -0.331561 0.230343 -0.583409 0.778830
0.052158 0.132717 0.251702 0.621494 -0.772104 -0.132663
-0.166379 0.092688 -0.060326 -0.923392 0.358525 -0.137139
-0.140495 -0.345999 -0.438556 0.275564 0.632852 -0.723577
0.167069 0.126356 -0.112504 0.029589 -0.811509 -0.583591
-0.023903 0.389179 0.104777 -0.446880 0.690654 0.568591
-0.021514 0.084943 -0.170246 0.385248 0.347196 -0.855008
0.142980 0.064403 -0.064985 0.219143 -0.808749 -0.545803
-0.390433 -0.364067 0.028903 -0.498021 -0.807558 -0.315952
0.042034 0.093761 0.396086 -0.410814 -0.898895 0.152380
-0.071867 0.337215 -0.029945 -0.734169 0.558004 -0.386818
-0.078946 0.316184 0.109942 -0.833003 0.322907 0.449263
-0.132979 0.127519 -0.105613 -0.786794 0.393652 -0.475387
-0.129129 -0.388663 -0.370893 0.560907 -0.773649 0.294704
-0.382472 -0.295503 -0.081327 0.692646 0.013101 -0.721159
0.122614 0.238571 -0.154033 0.221712 -0.025755 -0.974772
0.020202 0.358476 0.173843 -0.276403 0.619060 0.735096
-0.122117 -0.000122 0.121994 0.513473 0.513015 0.687867
-0.233774 -0.333234 -0.304896 0.094670 -0.354027 0.930431
0.061067 0.223382 0.347743 0.098909 0.848670 -0.519592
-0.401826 -0.191256 0.005956 -0.812321 0.502405 0.296183
-0.248375 0.040796 -0.100026 -0.320571 0.704719 0.632934
0.300506 0.112436 0.175234 0.156038 0.011230 0.987687
0.026870 -0.012650 -0.186044 0.894230 0.435353 0.104021
0.024757 -0.031738 0.001077 0.567904 -0.813572 0.124838
0.355575 0.144193 0.110255 0.767729 -0.039038 -0.639585
0.174002 0.400346 0.124303 0.382074 0.756317 0.531040
0.028050 0.230183 0.290067 0.333492 0.769713 0.544357
0.090580 0.238579 -0.163739 0.226519 -0.114650 -0.967235
-0.217396 -0.360504 -0.344251 -0.502862 -0.713962 -0.487225
-0.447843 -0.290422 -0.030091 -0.689819 0.391244 0.609161
-0.102398 -0.261941 -0.310359 0.384788 -0.919435 0.081104
-0.141567 -0.015179 -0.061270 -0.325383 -0.747636 -0.578935
-0.238403 -0.350725 -0.313428 -0.242292 -0.701138 0.670597
0.079324 0.296410 -0.158135 -0.412925 0.212813 -0.885553
0.040687 0.065623 -0.127206 0.800397 -0.383964 -0.460365
-0.304330 -0.391313 0.037337 0.983190 0.179280 -0.034582
-0.256723 -0.344407 -0.326066 -0.514371 -0.810016 -0.281597
-0.242308 -0.071949 0.131385 -0.689248 0.250306 0.679915
-0.043503 0.110734 0.121341 -0.535504 -0.470272 0.701484
0.322302 0.295992 0.306450 -0.329184 -0.940702 0.081956
0.004767 0.354658 0.169814 -0.373385 0.541171 0.753471
-0.157980 -0.295623 -0.347323 0.689423 -0.506799 -0.517543
0.015843 -0.100097 -0.287868 0.794887 0.061888 -0.603593
-0.312870 0.061736 -0.150268 -0.105595 0.758457 0.643112
0.281402 0.272091 0.178212 0.586977 0.789229 -0.180488
0.158199 0.161148 0.455139 0.638775 -0.442585 -0.629353
0.225485 0.253765 0.472960 -0.052208 0.919006 -0.390771
0.186311 0.187350 -0.203262 -0.278600 0.014715 -0.960295
-0.267935 -0.079155 0.083658 -0.974401 0.194850 0.112147
0.113596 0.239674 -0.157866 0.214199 -0.112452 -0.970296
0.020171 0.269989 0.230526 -0.224836 0.804336 0.549993
-0.431328 -0.312850 0.021377 -0.701377 0.585202 0.406950
-0.422552 -0.235971 -0.043718 -0.911043 0.391101 -0.130537
0.106653 0.346693 -0.126543 0.236918 0.597888 -0.765767
0.222392 0.139396 -0.021454 0.945462 -0.309939 0.100201
-0.130032 -0.133650 0.102194 0.824134 -0.527030 0.207466
0.081011 0.192945 0.242626 0.945853 -0.073690 0.316120
0.097910 0.426482 0.113241 -0.019087 0.881881 0.471085
-0.032777 0.398241 0.053699 -0.772477 0.631814 0.063954
-0.268134 -0.268222 -0.323480 -0.297648 0.934007 0.197579
0.554723 0.136716 -0.166993 0.786151 0.469406 -0.402025
0.016953 -0.148141 -0.236246 0.780748 -0.615933 0.105161
-0.188060 -0.335083 -0.430220 -0.489953 0.501250 -0.713228
-0.079002 0.087948 0.097642 -0.078892 -0.243243 0.966752
-0.049118 0.047830 -0.219821 0.096204 0.960756 -0.260179
0.000996 0.111993 0.276226 -0.423770 -0.903322 -0.066545
-0.079619 -0.071270 0.032867 0.537839 -0.841354 0.053416
0.201050 0.082614 -0.002764 0.729820 -0.611790 0.305084
-0.088903 -0.074365 0.067297 0.943107 -0.330518 0.036165
-0.347392 -0.266533 -0.047205 0.383318 -0.685347 -0.619166
-0.083127 0.188745 -0.115977 -0.732250 0.132089 -0.668104
0.252667 0.175266 0.029390 0.855095 -0.507405 -0.106548
-0.221102 -0.059552 -0.006047 -0.472939 0.098543 -0.875567
-0.297513 -0.150362 0.086622 -0.394314 0.559535 0.728997
-0.109684 0.204975 0.092986 -0.807949 0.437860 0.394330
0.076823 0.092978 0.363974 0.204858 -0.944844 -0.255544
-0.176037 0.071832 -0.075740 -0.591757 0.805923 0.017626
-0.096426 -0.130724 -0.323065 0.146455 0.872699 -0.465775
0.126760 0.192901 0.503831 -0.541739 0.460231 0.703353
0.162557 0.227026 0.501230 -0.227663 0.682008 0.695007
-0.121180 0.216305 0.065321 -0.869673 0.252063 0.424421
0.119589 0.209247 0.362711 0.284690 0.856118 -0.431292
-0.151527 -0.168674 -0.233895 -0.447835 0.475926 0.756927
0.283769 0.224858 -0.144767 0.507384 0.836136 0.208419
0.265935 0.228686 0.216937 0.206031 -0.566308 0.798027
-0.038248 -0.144258 -0.191113 -0.284582 -0.804946 0.520649
0.051348 0.419412 -0.041933 -0.085147 0.919530 -0.383686
-0.154901 -0.060601 0.151340 0.352830 0.098123 0.930528
-0.142407 -0.142456 0.048127 0.570703 -0.670865 -0.473538
-0.094125 0.096331 0.095731 -0.690032 -0.017794 0.723560
-0.294553 -0.145039 -0.019974 0.052351 0.700765 -0.711469
-0.227709 0.005341 -0.135286 0.169360 -0.754637 -0.633908
-0.112315 0.256255 -0.012438 -0.814082 0.063146 -0.577307
-0.238191 -0.130339 0.006691 0.078844 0.146134 -0.986118
-0.231691 -0.039095 0.002370 -0.576353 0.150065 -0.803304
0.033418 0.004999 -0.121601 0.969572 -0.057871 0.237866
-0.088826 -0.113304 -0.297235 -0.434630 0.527544 -0.729928
0.131746 0.074384 0.120465 0.703963 -0.566235 0.428736
-0.099146 -0.063262 -0.273925 -0.585921 0.231237 -0.776676
-0.369537 -0.338590 -0.051610 0.715303 -0.382271 -0.584988
0.566758 0.067735 -0.171949 0.640106 0.327235 -0.695113
-0.080408 -0.231262 -0.242317 0.647546 -0.584155 0.489334
0.236648 0.364152 0.121164 0.562874 0.733873 0.380266
-0.207484 0.016660 0.110502 -0.238324 0.849677 0.470373
-0.002152 0.206000 0.407307 -0.941488 0.323484 0.094649
-0.058229 0.266080 0.153706 -0.692774 -0.057721 0.718841
0.075320 0.353257 0.182965 0.297254 0.454331 0.839776
-0.311214 -0.211436 0.094112 -0.659087 -0.064548 0.749291
-0.040949 -0.049111 0.009393 0.303867 -0.824435 0.477464
0.313759 0.154053 0.181552 0.940009 0.289447 0.180564
-0.143305 -0.393522 -0.328546 0.307911 -0.631028 0.712035
-0.412165 -0.362783 0.089039 -0.906385 -0.054797 0.418883
0.451839 0.118799 -0.143165 0.153420 -0.423216 0.892945
