0.395224 0.304861 0.062296 0.738006 -0.628913 0.244572
-0.202590 -0.444335 -0.020540 0.990690 -0.057020 0.123620
0.195846 0.178499 -0.048366 0.500798 -0.300966 -0.811554
0.038360 -0.082984 0.009988 0.623929 -0.529003 0.575212
0.066996 -0.065285 -0.036689 0.748296 -0.557691 -0.359213
-0.267892 -0.375117 -0.112899 0.506288 0.555458 -0.659650
-0.369949 -0.332925 -0.000477 -0.938424 0.253762 0.234444
-0.207312 -0.207150 -0.079778 -0.109638 0.119927 -0.986710
0.237122 0.381890 -0.066207 0.155136 0.696122 -0.700962
0.251398 0.437967 -0.009500 0.594397 0.801787 0.061888
-0.054646 0.040943 -0.072679 -0.546944 0.430236 -0.718156
0.335725 0.268558 0.031613 0.089949 -0.995927 -0.006252
-0.190394 -0.141265 0.021579 -0.499542 0.283059 0.818740
0.291008 0.416026 -0.105680 0.594396 0.801788 0.061880
-0.263512 -0.427441 -0.010546 -0.594400 -0.801785 -0.061887
-0.075297 0.004073 -0.063507 -0.803807 0.566525 0.181505
-0.036797 -0.176208 0.028753 -0.215984 0.077626 0.973306
0.303869 0.398670 -0.107176 0.104232 0.039842 -0.993755
0.200762 0.353899 -0.062924 -0.360207 0.351551 -0.864096
0.100059 0.279514 -0.023812 0.203577 -0.073445 -0.976300
-0.216113 -0.154509 -0.013723 -0.495193 0.286783 0.820085
-0.136526 -0.173883 0.078204 -0.774299 0.595393 -0.214403
-0.314015 -0.278045 -0.022982 -0.839125 0.543145 0.029364
-0.249316 -0.363504 -0.116206 0.334072 0.121636 -0.934666
0.002853 -0.126651 0.033589 -0.215552 0.078008 0.973371
0.182734 0.385954 0.103386 -0.573449 0.425378 0.700150
-0.121881 -0.279944 -0.051378 0.478108 -0.328578 -0.814524
-0.110672 -0.030947 0.032023 -0.498232 0.284377 0.819082
-0.116402 -0.227088 -0.098939 0.362975 -0.233522 -0.902062
-0.063710 -0.214036 -0.000134 0.622758 -0.530493 0.575108
0.075695 -0.041363 0.036955 0.492510 -0.305432 -0.814951
0.264900 0.414975 0.158689 0.594398 0.801786 0.061888
-0.203706 -0.277179 -0.108378 -0.794593 0.585376 0.161115
-0.155218 -0.347878 -0.022261 0.210008 -0.090638 -0.973489
0.105784 0.265473 -0.024831 -0.403608 0.370778 -0.836435
-0.229834 -0.333691 -0.098314 0.772837 0.354031 -0.526674
0.143623 0.073883 0.080810 0.493334 -0.302189 -0.815661
0.023147 0.125755 0.070436 -0.213126 0.070954 0.974445
0.064640 -0.046333 0.040835 -0.215553 0.078008 0.973371
0.139014 0.038936 0.005995 0.491010 -0.309515 -0.814316
-0.009930 0.048861 0.090410 0.777931 -0.590497 0.214796
0.335716 0.317264 0.096207 -0.422845 -0.900253 0.103663
0.194626 0.120844 -0.012105 0.632950 -0.515600 0.577522
-0.252916 -0.338451 -0.115726 0.174548 0.292472 -0.940209
0.068081 -0.053673 -0.028453 0.392749 -0.363041 0.844955
-0.026073 0.013107 0.079094 0.394201 -0.372455 0.840168
0.289269 0.313231 0.128372 0.600693 0.270030 0.752497
-0.306564 -0.379025 -0.124215 -0.594399 -0.801785 -0.061891
-0.085533 -0.053577 0.083430 0.779055 -0.588993 0.214850
0.247225 0.404634 0.162265 -0.409319 -0.071917 0.909553
0.129693 0.314761 -0.020284 0.203610 -0.073468 -0.976292
-0.212781 -0.170390 0.017989 -0.499542 0.283059 0.818740
0.257671 0.272382 -0.065050 0.631490 -0.514328 0.580248
-0.217664 -0.171850 -0.037130 -0.808040 0.561087 0.179592
0.207074 0.260521 -0.063679 0.704191 -0.476345 -0.526508
-0.267540 -0.233649 -0.017798 -0.499471 0.280852 0.819543
-0.141591 -0.244116 0.069764 0.221493 -0.270597 0.936866
0.189017 0.439552 0.102003 -0.889223 -0.371616 0.266803
0.048707 0.148926 -0.058770 -0.092847 0.142396 -0.985445
0.326694 0.289269 0.091579 0.855011 0.100411 0.508796
0.351678 0.310169 0.003689 0.272074 -0.937608 -0.216485
0.324072 0.370223 0.162793 0.202448 -0.183810 0.961888
-0.025250 0.086399 -0.066959 -0.483660 0.297837 0.823023
-0.174273 -0.347248 -0.054980 0.478108 -0.328578 -0.814524
0.264588 0.420329 0.092330 0.594398 0.801786 0.061888
-0.020872 -0.084830 0.087093 0.239371 -0.279901 0.929708
0.202218 0.445748 -0.058671 -0.820315 -0.020272 -0.571552
-0.024483 0.055277 0.065150 -0.213162 0.070985 0.974435
0.019688 0.052744 0.083111 -0.495854 0.292477 0.817671
0.306669 0.391556 0.060934 0.594398 0.801786 0.061888
0.160704 0.223294 -0.067713 -0.388405 0.360321 -0.848122
0.259495 0.217797 0.044088 0.801290 -0.574117 -0.168296
0.068040 0.016814 -0.084477 0.633261 -0.511908 0.580458
0.070866 -0.019096 -0.055940 0.631181 -0.516222 0.578900
-0.066741 -0.122964 -0.083823 0.205747 -0.104100 -0.973053
0.087804 0.187996 0.096309 -0.777274 0.591930 -0.213224
0.009621 0.085828 0.095933 -0.374099 0.191208 0.907463
-0.224057 -0.389144 -0.098147 -0.047133 -0.786842 -0.615352
0.118162 -0.009079 0.011639 -0.212471 0.084744 0.973486
0.169559 0.362467 0.086210 -0.642573 0.445960 0.623073
0.326322 0.304466 0.087052 0.853696 0.086174 0.513593
0.076547 0.221208 -0.060023 -0.522111 0.441334 -0.729812
-0.239428 -0.398972 -0.104151 0.706472 0.674395 -0.214682
0.172505 0.408365 0.056880 0.114591 0.974831 0.191244
0.216327 0.456306 0.089751 0.594400 0.801785 0.061885
-0.046595 0.046657 -0.063475 -0.695017 0.470023 0.544086
-0.059111 -0.027157 0.076746 0.394201 -0.372455 0.840168
0.217053 0.458559 0.053579 0.594396 0.801788 0.061889
0.358180 0.311351 0.106654 -0.221685 -0.946384 0.234976
0.341241 0.372467 -0.023795 0.594391 0.801791 0.061886
0.247848 0.417344 -0.097883 -0.538319 -0.210465 -0.816037
-0.263142 -0.430828 0.029779 -0.594397 -0.801787 -0.061888
0.162175 0.279369 0.106856 0.638476 -0.515549 0.571452
0.162089 0.394658 0.044604 -0.716617 -0.696732 -0.032022
0.073253 0.014142 0.070057 0.096184 -0.159132 0.982561
-0.166411 -0.093947 -0.049063 0.199045 -0.079529 -0.976758
0.214928 0.182372 0.069235 0.778920 -0.587470 0.219460
0.115793 0.225263 0.093409 -0.794775 0.580634 0.176623
0.027442 -0.084462 -0.065515 0.397087 -0.355341 0.846200
0.145870 0.286247 0.083551 -0.204215 0.083026 0.975399
-0.042906 -0.164759 -0.057399 0.786532 -0.594651 -0.166609
-0.005638 0.003508 0.097912 -0.775477 0.593820 -0.214504
0.123408 0.272882 0.082821 0.403546 -0.362127 0.840247
0.183117 0.329557 0.089678 -0.706281 -0.098953 0.700982
0.038881 -0.044358 0.066948 -0.495264 0.297510 0.816212
0.342970 0.369245 0.001348 0.594390 0.801792 0.061887
0.167446 0.340412 0.092874 0.288855 -0.830618 0.476063
0.099934 0.208471 0.084856 -0.697327 0.472888 0.538621
-0.242139 -0.184547 -0.053808 -0.774217 0.547180 -0.318092
-0.058902 -0.057779 0.074177 -0.500532 0.285955 0.817128
-0.090380 -0.121363 0.084229 0.800218 -0.574183 -0.173106
0.132801 0.032354 0.043839 0.492533 -0.305450 -0.814930
-0.080238 -0.231012 0.005310 0.762420 -0.608812 0.219235
0.399163 0.310722 -0.003902 0.863365 -0.456734 -0.214463
0.047883 0.159367 0.073145 -0.208668 0.076982 0.974952
-0.019339 0.080059 -0.054225 -0.800510 0.571061 0.181862
0.163629 0.234461 0.105497 -0.694332 0.478297 0.537713
-0.162666 -0.316364 0.021855 0.615409 -0.541448 0.572805
0.198256 0.416638 -0.013977 -0.613207 0.671332 -0.416283
-0.360738 -0.354830 -0.017457 -0.594400 -0.801785 -0.061886
-0.312973 -0.385673 -0.076629 -0.594401 -0.801784 -0.061888
0.331300 0.385741 -0.101893 0.254334 -0.073803 -0.964296
0.139808 0.303974 -0.054499 -0.516588 0.451141 -0.727742
-0.198911 -0.170003 -0.066697 -0.789544 0.577309 -0.208169
-0.195605 -0.385449 -0.078399 0.171463 -0.849438 -0.499055
-0.119362 -0.093443 0.073505 -0.636097 0.520368 -0.569735
0.179590 0.466999 -0.008278 -0.879165 0.369833 -0.300488
0.239809 0.312450 0.125117 0.038527 -0.087731 0.995399
0.247601 0.227874 0.080740 0.800195 -0.575220 -0.169736
0.098542 0.288963 -0.019738 -0.204877 0.074918 0.975916
0.049665 0.006596 0.091200 0.699419 -0.474445 -0.534524
0.033525 0.115465 0.092928 -0.778661 0.590096 -0.213244
-0.058147 -0.220909 0.022814 0.216034 -0.079344 -0.973157
0.224851 0.452154 0.061670 0.594397 0.801786 0.061888
0.260785 0.274611 -0.066882 0.127737 -0.006929 -0.991784
0.158654 0.161188 -0.067412 -0.393569 0.355474 -0.847786
-0.061890 -0.220108 -0.039617 0.392395 -0.363485 0.844929
-0.009513 -0.155635 -0.008640 0.486900 -0.315103 -0.814640
0.082168 -0.025944 -0.005629 0.694184 -0.485438 -0.531467
0.205508 0.464102 0.092651 0.594396 0.801788 0.061890
0.010661 0.085709 -0.064683 -0.396763 0.346639 -0.849953
0.185888 0.433908 0.060151 -0.861032 -0.505710 0.053671
-0.059889 -0.107046 -0.084239 0.486271 -0.322215 -0.812230
-0.191309 -0.378572 -0.073552 0.656949 -0.522661 -0.543363
0.374467 0.347781 -0.023078 0.594399 0.801786 0.061887
0.095957 0.250721 0.080265 -0.404496 0.363257 -0.839302
0.008776 -0.076550 -0.064842 0.206804 -0.099933 -0.973265
0.367869 0.304738 0.064661 -0.534085 -0.844534 -0.038930
-0.063317 -0.232330 -0.007646 0.095878 -0.154358 0.983352
-0.011599 -0.016793 -0.090261 -0.776429 0.587298 -0.228560
0.392487 0.325290 0.095228 0.594390 0.801792 0.061887
0.303065 0.397235 0.021968 0.594398 0.801786 0.061888
0.135164 0.291318 0.085121 0.403546 -0.362127 0.840247
-0.023947 -0.032990 -0.090134 -0.637946 0.502587 -0.583464
0.029376 0.160051 -0.063077 -0.546035 0.454907 -0.703496
-0.281972 -0.369422 -0.124947 0.458690 0.702094 -0.544671
-0.020352 -0.097903 -0.093659 0.364766 -0.231487 -0.901864
0.027655 -0.037095 -0.087894 0.634212 -0.510618 0.580554
-0.248446 -0.235595 -0.079456 -0.698336 0.465653 0.543594
0.129646 0.336171 0.021415 0.107417 -0.157043 0.981733
-0.048248 0.056696 0.065182 -0.402604 0.365609 -0.839190
0.003872 -0.036359 -0.078905 -0.104679 0.131935 -0.985716
0.097484 0.119469 -0.092001 0.094438 0.002640 -0.995527
0.258844 0.276125 0.095154 0.084649 -0.686812 0.721889
-0.176339 -0.141373 0.046155 0.097583 -0.165122 0.981434
-0.066174 -0.019809 -0.071176 -0.401857 0.339468 -0.850454
0.074796 0.158178 -0.085415 -0.242635 0.250161 -0.937309
0.238786 0.208646 0.065229 0.638872 -0.510395 0.575621
-0.254253 -0.431465 0.047675 0.618845 0.012214 0.785418
-0.334415 -0.378312 0.051276 -0.720769 -0.453815 0.523970
-0.267587 -0.374648 0.055200 -0.180373 -0.373641 0.909867
-0.035200 0.069450 0.063527 -0.640840 0.515373 -0.568959
0.187349 0.253328 0.118002 0.796755 -0.578938 -0.173239
-0.064482 -0.102623 -0.090258 0.693287 -0.490869 -0.527638
-0.223588 -0.171950 0.007929 -0.652612 0.500604 -0.568765
0.264866 0.431667 -0.057233 0.594399 0.801785 0.061888
0.063247 0.032412 0.098345 -0.796399 0.579399 0.173337
0.151840 0.098843 0.068965 0.797034 -0.579482 -0.170111
0.164760 0.100687 -0.060299 -0.631817 0.513776 -0.580381
-0.338275 -0.370694 -0.027674 -0.594400 -0.801785 -0.061887
-0.156940 -0.069102 0.025822 0.407180 -0.360899 0.839021
0.143993 0.088457 -0.053825 -0.096422 0.145744 -0.984612
0.082826 0.274604 0.011157 0.203111 -0.076617 -0.976154
0.036844 0.107070 -0.074945 -0.777237 0.585596 -0.230174
0.093804 0.141954 -0.071094 -0.094351 0.143278 -0.985175
-0.356095 -0.325998 0.002527 -0.650372 0.687063 0.323975
0.197542 0.444438 0.119974 -0.752417 0.205126 0.625933
0.201851 0.190476 -0.049103 0.500798 -0.300966 -0.811554
-0.004068 -0.034369 0.077024 -0.220444 0.066262 0.973146
0.090812 -0.033525 0.008394 0.097752 -0.152001 0.983535
0.185356 0.107042 0.047785 0.493703 -0.303780 -0.814846
-0.079196 -0.181135 -0.074394 0.484194 -0.322856 -0.813216
0.194275 0.472997 0.085298 0.594396 0.801788 0.061889
-0.194578 -0.194180 0.066732 -0.384180 0.180844 0.905373
0.082673 0.184377 0.104552 -0.360095 0.194476 0.912420
0.099588 0.074543 0.094542 0.796168 -0.580190 -0.171742
0.229227 0.216293 0.087045 -0.208682 0.084566 0.974320
0.121888 0.031799 -0.029139 0.212054 -0.090450 -0.973063
-0.023531 0.062732 -0.066071 0.216665 -0.094279 -0.971683
0.221955 0.211542 0.085899 -0.208790 0.084657 0.974290
-0.313302 -0.327695 0.042231 -0.187535 0.688027 0.701035
0.073959 0.035221 -0.084197 -0.772621 0.593060 -0.226577
0.054759 -0.044718 -0.061279 0.629729 -0.518167 0.578744
0.013789 -0.077927 0.063959 -0.495272 0.297516 0.816205
0.210040 0.146314 0.056715 -0.212658 0.081747 0.973701
0.231057 0.185519 0.059743 0.103067 -0.147275 0.983711
0.081282 0.252011 -0.018390 -0.486235 0.296347 0.822043
-0.245608 -0.441535 0.000094 -0.594397 -0.801787 -0.061888
0.073240 -0.043933 -0.033928 -0.098162 0.145541 -0.984470
-0.178789 -0.356838 -0.000953 0.780002 -0.602116 -0.170452
0.028502 0.099705 0.093498 0.636039 -0.518837 0.571194
0.223974 0.270768 -0.057708 0.222232 -0.082094 -0.971531
-0.027398 -0.084761 0.080167 -0.700501 0.471297 0.535889
0.083644 0.083613 0.087892 -0.215624 0.072684 0.973768
0.123683 0.066141 -0.055114 -0.099579 0.141479 -0.984920
0.274804 0.238521 0.043127 0.778914 -0.586844 0.221147
0.108854 0.291198 0.047231 -0.403872 0.366236 -0.838307
0.205260 0.202910 -0.074346 0.385244 -0.204136 -0.899953
-0.272453 -0.325258 -0.112155 -0.346844 -0.030303 -0.937433
0.271360 0.423681 -0.016149 0.594398 0.801786 0.061888
0.131728 0.313378 0.041205 -0.774236 0.597172 -0.209627
0.227000 0.369843 0.124071 0.227492 0.695022 0.682050
-0.341237 -0.370087 -0.007086 -0.594395 -0.801788 -0.061889
0.007630 0.020650 0.097400 -0.775477 0.593820 -0.214504
-0.121859 -0.033900 0.013446 -0.787948 0.578400 -0.211166
0.074326 0.270929 0.009704 -0.791782 0.603134 -0.096488
0.317052 0.379441 0.118165 0.594398 0.801786 0.061888
0.264533 0.428182 -0.008880 0.594399 0.801785 0.061888
-0.311260 -0.286467 0.008687 -0.783568 0.473176 0.402648
-0.023553 -0.175111 0.026760 0.216385 -0.079610 -0.973057
0.000605 0.039490 -0.080473 0.494846 -0.312938 -0.810677
0.244054 0.181005 0.026334 0.399655 -0.356408 0.844541
-0.148131 -0.133977 0.056601 -0.707600 0.458668 0.537517
0.261894 0.434073 -0.059857 0.594399 0.801786 0.061888
0.353752 0.365627 -0.089989 0.433179 -0.212928 -0.875795
0.226952 0.386822 0.113566 -0.449513 0.189705 0.872897
-0.104247 -0.277825 0.017186 0.217492 -0.077373 -0.972991
0.133047 0.311806 -0.019829 -0.108042 0.160889 -0.981041
-0.097033 -0.027346 -0.057199 -0.788490 0.578840 -0.207915
0.151510 0.068650 0.050452 -0.212735 0.081799 0.973680
-0.185329 -0.398115 -0.015093 0.286177 -0.956912 0.049217
0.006357 -0.003745 -0.095448 0.775961 -0.588429 0.227234
0.082817 0.156888 -0.075672 0.701946 -0.480549 -0.525685
0.150444 0.324581 -0.020180 -0.403608 0.370778 -0.836435
0.063371 0.230843 -0.027732 0.202210 -0.075289 -0.976444
0.176161 0.115795 -0.059235 0.584970 -0.382654 -0.715112
0.229000 0.313654 -0.077027 0.017302 0.081713 -0.996506
0.070535 0.170919 0.102521 -0.393664 0.218735 0.892852
-0.136104 -0.078993 -0.055230 -0.653958 0.501826 -0.566135
-0.274639 -0.313773 -0.105161 -0.330756 0.238703 -0.913029
-0.157747 -0.317154 -0.058442 0.680596 -0.504548 -0.531244
0.041823 0.118692 -0.087084 -0.248048 0.240253 -0.938483
-0.285879 -0.268860 -0.038287 -0.797011 0.566088 -0.210517
0.197975 0.398084 0.091710 -0.156430 0.832147 0.532036
-0.037296 0.049491 -0.069383 0.498211 -0.310467 -0.809565
-0.184065 -0.405522 -0.050272 0.781542 -0.581525 -0.225879
0.157222 0.223696 0.118640 -0.104935 0.009746 0.994431
0.076332 -0.012938 -0.039928 0.694164 -0.486794 -0.530254
0.108589 0.087303 0.093309 0.797379 -0.578562 -0.171617
0.111145 0.009984 -0.020112 0.629501 -0.519916 0.577422
-0.216814 -0.241469 -0.095581 -0.803712 0.573486 0.158619
0.012757 0.085308 0.083128 -0.801322 0.571821 0.175796
-0.160682 -0.110120 -0.074614 -0.696710 0.467964 0.543696
-0.028823 -0.150311 0.058668 0.495698 -0.298849 -0.815458
0.168864 0.234098 -0.066860 -0.388405 0.360321 -0.848122
-0.070000 -0.026730 0.068208 -0.804718 0.567092 0.175601
-0.224812 -0.384225 0.056282 0.359413 -0.352656 0.863977
0.034719 0.107216 -0.069462 -0.635408 0.504357 -0.584705
0.219958 0.453875 0.086368 0.594396 0.801787 0.061889
0.053649 0.220372 0.015622 -0.487714 0.296460 0.821125
-0.186412 -0.262897 -0.107373 0.777417 -0.586461 0.227346
-0.191769 -0.265193 0.055637 0.382629 -0.385477 0.839645
-0.072314 -0.225640 -0.001520 0.622758 -0.530493 0.575108
0.157514 0.059179 0.053558 0.701351 -0.558335 0.443136
-0.336348 -0.294262 -0.009954 -0.806489 0.564213 0.176749
0.005659 0.044415 0.080660 0.098644 -0.160769 0.982050
-0.173298 -0.116623 0.052095 -0.631789 0.382251 0.674334
-0.124197 -0.225654 0.053219 0.624392 -0.531170 0.572707
-0.227479 -0.446710 0.025643 0.132755 -0.907702 0.398061
-0.114196 -0.282372 -0.022240 0.682011 -0.501526 -0.532290
-0.344406 -0.325587 -0.013514 -0.145912 0.974686 0.169402
-0.235319 -0.220204 -0.075753 -0.808816 0.559468 0.181144
0.406763 0.317126 0.036443 0.818594 -0.571046 0.061730
0.168231 0.092768 0.039369 0.796845 -0.580188 -0.168582
-0.040716 -0.182406 0.017767 0.691135 -0.488268 -0.532847
-0.161190 -0.063990 -0.009248 0.110906 -0.152339 0.982086
-0.105402 -0.023753 -0.045289 -0.417564 0.352174 -0.837624
-0.261140 -0.232784 -0.007300 -0.815985 0.550252 0.177176
0.279268 0.415072 0.019436 0.594398 0.801786 0.061888
-0.114107 -0.240733 -0.073803 0.205829 -0.101540 -0.973306
-0.007913 0.020710 0.079345 -0.214894 0.071007 0.974053
0.031130 0.190522 0.003447 -0.406727 0.364378 -0.837736
0.263955 0.223821 0.044774 0.801290 -0.574117 -0.168296
0.008667 0.138288 0.044754 -0.493630 0.290854 0.819594
0.156468 0.115776 -0.051336 0.216122 -0.087618 -0.972427
-0.185612 -0.249893 0.072105 -0.008734 -0.121447 0.992559
0.071680 0.165320 0.092137 -0.777296 0.591945 -0.213102
0.015770 -0.091241 -0.060508 0.629755 -0.518181 0.578703
0.320270 0.309487 0.095547 0.716658 -0.211093 0.664712
0.297799 0.349609 0.140619 0.345154 0.027664 0.938138
0.108803 0.002451 0.046860 -0.491846 0.304026 0.815877
-0.218401 -0.383953 -0.104874 0.004326 -0.728741 -0.684776
0.019781 -0.076717 0.055414 0.790459 -0.588193 -0.170894
-0.191172 -0.211080 -0.105153 0.802301 -0.574985 -0.160329
-0.107674 -0.200904 -0.092339 -0.634533 0.508752 -0.581841
-0.234125 -0.442814 -0.083846 -0.214385 -0.921277 -0.324482
-0.284241 -0.265816 -0.048479 -0.706511 0.455816 0.541363
-0.235226 -0.193809 -0.045141 -0.706522 0.455827 0.541339
-0.149524 -0.319351 0.000549 0.780002 -0.602116 -0.170452
0.396434 0.331742 -0.035570 0.733662 -0.465024 -0.495473
0.124466 0.086958 -0.057337 0.495769 -0.307557 -0.812171
-0.141993 -0.083324 0.054705 0.399353 -0.367462 0.839934
-0.157413 -0.265761 0.054501 0.763325 -0.608746 0.216247
-0.103486 -0.218756 -0.073921 0.484154 -0.322821 -0.813254
-0.058827 -0.167347 -0.069770 0.205681 -0.101434 -0.973348
0.151584 0.084062 -0.030028 0.699143 -0.480129 -0.529789
0.008467 -0.080780 -0.064473 0.206827 -0.099950 -0.973259
0.021276 0.199225 0.005296 -0.799369 0.594914 -0.084176
0.133197 0.300538 0.091419 -0.625931 0.422113 0.655768
0.105705 0.130496 -0.091192 0.094438 0.002640 -0.995527
-0.126398 -0.027559 -0.003971 -0.494360 0.287803 0.820230
-0.244297 -0.215425 -0.056379 -0.123574 0.140329 -0.982363
0.340697 0.287809 -0.015578 0.965891 0.076129 -0.247507
0.120888 0.018280 0.002917 0.491010 -0.309515 -0.814316
0.102501 0.224531 0.079690 -0.208769 0.077051 0.974925
-0.216279 -0.190247 0.043217 0.397717 -0.369756 0.839703
0.356805 0.363681 -0.059431 0.594399 0.801786 0.061887
-0.180568 -0.198905 0.057359 0.393448 -0.373542 0.840039
0.035518 0.180364 -0.030159 -0.111316 0.156474 -0.981389
0.290985 0.396276 0.150423 0.594399 0.801785 0.061888
-0.232975 -0.197802 0.014872 -0.218865 0.060919 0.973852
-0.240555 -0.194462 -0.014781 -0.499471 0.280852 0.819543
-0.031169 -0.135111 0.057516 -0.495653 0.297088 0.816129
-0.118358 -0.263510 -0.060142 0.780076 -0.602923 -0.167227
-0.216043 -0.290532 0.061889 0.771441 -0.598645 0.215645
-0.058963 -0.207499 -0.032633 0.763173 -0.607240 0.220970
0.306737 0.368316 -0.100160 -0.365245 -0.691391 -0.623358
-0.065597 -0.097629 -0.103957 0.067363 -0.006556 -0.997707
0.055657 -0.031197 0.073167 -0.696821 0.477649 0.535062
-0.249510 -0.205848 -0.056897 0.488544 -0.291287 -0.822482
-0.099049 -0.074937 -0.097686 -0.272469 0.240247 -0.931688
0.151634 0.228999 -0.063810 -0.089511 0.150032 -0.984621
-0.243192 -0.438500 -0.062435 -0.594396 -0.801787 -0.061890
0.301662 0.255533 -0.000146 -0.145298 -0.822969 0.549191
-0.313328 -0.342578 -0.098714 0.108336 0.840367 -0.531080
0.048516 0.110926 -0.079394 0.700571 -0.482397 -0.525826
0.177601 0.236820 -0.080141 -0.799553 0.578704 0.160675
0.276819 0.242564 0.063489 0.103067 -0.147275 0.983711
0.237844 0.183849 0.032308 0.637772 -0.510322 0.576904
-0.083123 -0.200111 -0.071489 0.205681 -0.101434 -0.973348
0.285853 0.361944 -0.069806 -0.177947 -0.460425 -0.869680
0.378739 0.342944 -0.064354 0.618934 -0.364576 -0.695705
0.017430 0.023659 0.100876 0.798856 -0.576080 -0.173090
0.208810 0.207107 -0.052450 0.704408 -0.474427 -0.527947
0.177880 0.202476 -0.062481 0.222210 -0.082075 -0.971538
0.135238 0.320452 -0.010309 -0.691866 0.475896 0.542996
0.169798 0.386912 0.080176 -0.830340 -0.538836 0.142098
-0.039464 -0.143337 -0.068180 0.205681 -0.101434 -0.973348
0.165159 0.155013 0.085491 0.398112 -0.362882 0.842510
0.337526 0.335290 -0.062855 0.659795 -0.077493 -0.747439
-0.260878 -0.212505 -0.056290 -0.774217 0.547180 -0.318092
0.117799 0.287736 -0.022097 -0.108042 0.160889 -0.981041
-0.027904 0.062107 -0.068441 0.498211 -0.310467 -0.809565
0.115611 0.040285 0.076267 0.494389 -0.300764 -0.815550
0.056041 0.214668 0.048378 -0.207226 0.076602 0.975290
0.018009 0.003577 0.080722 0.096773 -0.160684 0.982250
-0.043812 0.001234 -0.093980 -0.266887 0.239234 -0.933562
-0.108446 -0.113337 0.065443 -0.221250 0.062221 0.973230
0.092702 0.240377 0.060398 -0.691781 0.478789 0.540555
-0.117828 -0.303115 -0.047528 0.101628 -0.143911 0.984358
-0.134534 -0.139655 0.062902 0.092742 -0.168588 0.981314
-0.160433 -0.109337 -0.054024 -0.653958 0.501826 -0.566135
-0.325230 -0.381020 -0.019181 -0.594400 -0.801785 -0.061888
0.181497 0.245639 0.116781 0.796755 -0.578938 -0.173239
0.223823 0.385832 -0.065185 0.250666 0.820662 -0.513498
0.215997 0.462898 0.007515 0.594396 0.801788 0.061889
0.106049 0.306237 0.019208 0.107417 -0.157043 0.981733
-0.349152 -0.349933 -0.092072 -0.594398 -0.801787 -0.061887
0.110718 0.157873 -0.072063 -0.392753 0.354209 -0.848694
-0.024234 0.027781 0.086889 0.636102 -0.518882 0.571083
-0.098965 0.010856 -0.044794 0.487055 -0.293217 -0.822679
-0.261901 -0.425227 -0.054699 -0.594395 -0.801788 -0.061890
0.145663 0.253629 0.102083 0.638498 -0.515560 0.571418
-0.138584 -0.046478 0.020968 -0.408356 0.360107 -0.838790
-0.335136 -0.378195 0.039352 -0.594394 -0.801789 -0.061893
-0.129553 -0.315177 -0.019769 0.210182 -0.090769 -0.973440
0.005682 0.019947 -0.080015 -0.397299 0.348236 -0.849050
0.226038 0.157464 0.014362 0.497288 -0.300959 -0.813713
0.093923 -0.012933 -0.021971 0.629632 -0.519983 0.577218
0.129803 0.020676 -0.024776 0.099197 -0.147122 0.984132
0.312961 0.396808 -0.067539 0.594390 0.801792 0.061887
-0.222373 -0.395623 -0.090418 0.208384 -0.712506 -0.670008
-0.246176 -0.262057 0.036795 -0.508437 0.272884 0.816717
-0.228414 -0.254838 -0.088947 -0.647130 0.487950 -0.585770
-0.016134 0.097380 -0.038275 -0.412685 0.358569 -0.837328
0.145741 0.336232 0.047888 -0.637500 0.521455 -0.567167
0.269844 0.400979 0.166631 -0.141361 0.068993 0.987551
0.213077 0.408999 -0.038335 -0.600666 0.421330 -0.679471
-0.038601 -0.123139 -0.091183 0.634482 -0.510352 0.580494
0.324169 0.270985 -0.000716 -0.172563 -0.968642 -0.178759
-0.222404 -0.448330 -0.064452 0.494987 -0.789965 -0.361860
-0.208918 -0.398461 0.038586 0.354326 -0.695626 0.624945
-0.016937 0.112264 0.017007 -0.803067 0.568435 0.178788
0.035772 0.116635 0.087960 -0.778661 0.590096 -0.213244
-0.197064 -0.139653 -0.027312 -0.652141 0.502840 -0.567331
0.257656 0.374727 -0.069175 -0.017763 0.271603 -0.962246
-0.331474 -0.378530 0.008529 -0.594394 -0.801789 -0.061889
0.025093 0.048773 0.089129 -0.700852 0.469452 0.537048
0.058132 0.201284 -0.029780 -0.408239 0.364757 -0.836835
-0.092876 0.008729 -0.042401 0.199386 -0.079070 -0.976726
-0.058189 0.072847 0.039060 0.402102 -0.360340 0.841706
0.093944 0.242579 -0.053172 -0.484700 0.296381 0.822936
-0.102467 -0.072585 0.070502 -0.780421 0.587674 -0.213499
-0.208137 -0.451062 -0.009237 0.735392 -0.648520 0.196523
0.009575 0.157188 0.044266 0.106644 -0.155534 0.982057
0.379126 0.333252 -0.059880 0.762541 -0.183488 -0.620374
-0.131155 -0.075728 -0.079691 0.705272 -0.477591 -0.523926
0.177646 0.451121 0.017140 -0.836831 -0.539018 -0.095773
-0.002438 -0.107164 0.056232 0.695741 -0.480511 -0.533904
0.045065 0.073611 0.093480 -0.700801 0.469413 0.537149
0.197872 0.202987 0.091895 0.639417 -0.511419 0.574105
-0.002258 -0.147651 0.029249 0.216385 -0.079610 -0.973057
0.064162 0.235427 -0.022538 -0.486288 0.296384 0.821998
0.094425 0.268407 0.052615 0.107785 -0.153837 0.982200
0.112605 0.046009 0.065733 0.793864 -0.583732 -0.170398
-0.264211 -0.238956 -0.057235 -0.123532 0.140298 -0.982373
-0.248798 -0.318914 -0.097469 0.356164 0.670849 -0.650468
-0.319644 -0.369699 -0.119402 -0.594398 -0.801786 -0.061887
-0.352935 -0.348667 -0.087090 -0.537271 0.606068 -0.586533
0.086828 -0.028428 -0.032991 -0.098162 0.145541 -0.984470
-0.000060 0.148945 -0.029375 -0.487504 0.294740 0.821869
-0.054851 0.082552 0.002360 -0.206564 0.074610 0.975584
-0.004807 0.105353 0.058589 -0.781408 0.586977 -0.211799
0.107643 0.061446 -0.057758 0.490789 -0.314223 -0.812644
-0.255235 -0.223448 -0.033540 -0.658256 0.494294 -0.567779
0.070039 0.224127 0.050609 -0.207170 0.076564 0.975304
0.167138 0.333838 -0.027037 -0.637815 0.524064 -0.564401
-0.233416 -0.388923 -0.099332 0.210874 -0.530033 -0.821339
-0.091831 -0.014388 -0.048940 -0.652724 0.503491 -0.566081
-0.286060 -0.414032 0.060980 -0.128423 -0.449333 0.884085
0.102674 0.067134 -0.066221 0.794333 -0.584864 -0.164221
0.049337 0.212888 0.041823 -0.405123 0.364299 -0.838547
0.023580 -0.078045 0.063930 0.695825 -0.480578 -0.533735
-0.191802 -0.127508 -0.051505 0.199161 -0.079621 -0.976727
-0.129167 -0.286424 -0.076644 0.398429 -0.353289 0.846428
-0.050185 -0.010191 -0.078229 -0.780464 0.581041 -0.230797
-0.024069 -0.123725 0.058237 -0.218694 0.071081 0.973201
0.003353 0.074291 0.089159 -0.778661 0.590096 -0.213244
-0.153393 -0.113289 -0.077772 0.496526 -0.312964 -0.809639
0.211705 0.128067 0.053486 0.213904 -0.082870 -0.973333
-0.005010 -0.116698 -0.049866 0.787696 -0.593139 -0.166497
0.069816 0.021973 -0.081864 0.633261 -0.511908 0.580458
-0.140791 -0.101616 -0.075141 0.212326 -0.100010 -0.972068
0.031565 0.163182 -0.061318 -0.484727 0.296400 0.822914
-0.007504 0.058605 0.085400 -0.778652 0.590091 -0.213292
0.190764 0.387510 0.107267 -0.296776 0.649464 0.700087
-0.182137 -0.378920 -0.037588 0.707271 0.706016 0.036179
0.389051 0.299012 0.031923 -0.010724 -0.999025 -0.042824
0.098056 -0.003162 -0.016649 0.769236 -0.599353 0.221476
-0.197701 -0.392135 0.024809 0.594396 0.801788 0.061886
-0.079130 -0.250282 -0.014872 0.211861 -0.088511 -0.973284
-0.177717 -0.192565 -0.104269 0.801076 -0.576654 -0.160459
0.193457 0.343041 -0.052459 -0.571936 -0.650836 -0.499301
0.320697 0.381106 0.061589 0.594397 0.801787 0.061888
0.144676 0.252713 -0.064115 -0.770915 0.594120 -0.229588
-0.004155 -0.132946 0.012999 0.763627 -0.607162 0.219609
0.002637 0.064513 0.090333 0.636039 -0.518837 0.571194
-0.192185 -0.315761 -0.100126 -0.769733 0.596864 -0.226417
0.262986 0.228924 -0.043297 0.394248 -0.358959 0.846001
0.266446 0.422197 0.050279 0.594398 0.801786 0.061888
0.014895 0.021923 -0.085150 -0.634631 0.507133 -0.583147
0.155318 0.066468 0.044712 0.493744 -0.303819 -0.814807
-0.031638 0.021512 -0.071121 -0.640113 0.497963 -0.585054
-0.165004 -0.316593 0.031578 0.785206 -0.595036 -0.171413
-0.092025 0.023612 -0.008394 -0.112596 0.152606 -0.981852
-0.197253 -0.137115 0.008947 -0.648186 0.506761 -0.568373
0.268434 0.197707 0.020811 -0.098963 0.147679 -0.984072
-0.139412 -0.290131 0.021668 0.615439 -0.541463 0.572758
0.372251 0.332579 0.124727 0.584227 -0.444894 0.678784
0.300455 0.389560 -0.109224 0.055032 -0.026256 -0.998139
-0.205674 -0.236926 -0.096922 0.696892 -0.487354 -0.526144
0.187142 0.445188 -0.014014 -0.675974 -0.730020 -0.100650
-0.285089 -0.324758 0.054546 0.042815 0.597691 0.800582
-0.113347 -0.294325 -0.053094 -0.390720 0.363682 -0.845620
-0.008323 0.129116 -0.034661 0.200835 -0.077133 -0.976584
0.182366 0.196946 -0.063442 -0.091046 0.150405 -0.984423
-0.213034 -0.452823 -0.044806 -0.159822 -0.980448 -0.114801
-0.202816 -0.379404 -0.093701 0.772335 0.590751 -0.233479
-0.332554 -0.378621 0.020072 -0.594395 -0.801788 -0.061889
-0.274500 -0.223138 -0.020954 0.112238 -0.150270 0.982253
0.127941 0.281046 -0.032600 -0.774896 0.597333 -0.206711
-0.118679 -0.007274 -0.004467 -0.207851 0.072872 0.975442
0.156901 0.092049 -0.050778 0.632556 -0.514388 0.579032
0.060953 0.016780 -0.088116 -0.772589 0.593052 -0.226706
0.054091 0.190705 0.054027 -0.696777 0.472146 0.539982
-0.141907 -0.063279 0.025900 -0.214383 0.066692 0.974470
0.156062 0.082541 -0.057549 0.631997 -0.422591 -0.649613
-0.015781 -0.171663 -0.043755 0.745752 -0.558474 -0.363264
0.176994 0.321648 -0.045046 -0.088413 0.148586 -0.984939
0.198568 0.403398 -0.038700 0.034382 0.921097 -0.387812
-0.207987 -0.173573 0.047327 0.641143 -0.513623 0.570200
0.096836 0.241198 -0.062419 -0.519322 0.439505 -0.732898
0.059236 0.214636 -0.014274 -0.797894 0.575102 0.180619
-0.168229 -0.095984 0.022415 0.103688 -0.159216 0.981784
-0.162995 -0.202876 -0.090587 -0.105847 0.127913 -0.986121
-0.129793 -0.086238 0.051153 -0.218994 0.063109 0.973683
0.123504 0.242059 0.107323 -0.639059 0.516377 -0.570051
0.184901 0.175313 -0.071884 0.632415 -0.513143 0.580289
0.316181 0.329640 -0.052013 0.594002 -0.196235 -0.780163
-0.249138 -0.219184 0.012577 -0.218865 0.060919 0.973852
0.038105 0.122392 0.080353 -0.701761 0.466705 0.538255
-0.208869 -0.340184 -0.104642 0.449262 -0.326385 -0.831647
-0.277054 -0.251914 0.008351 -0.218661 0.060758 0.973908
-0.369179 -0.341025 -0.044903 -0.949137 0.267245 -0.166492
-0.026212 -0.140917 0.064891 -0.695726 0.479292 0.535018
-0.056307 -0.017107 -0.092130 -0.700493 0.483961 0.524492
0.216353 0.216913 -0.051196 0.704408 -0.474427 -0.527947
0.112435 0.311068 0.055692 -0.760090 0.548606 0.348273
-0.002799 -0.134565 0.032972 -0.215552 0.078008 0.973371
-0.326427 -0.311982 0.029785 -0.897597 -0.144935 0.416310
0.111214 0.085814 0.101374 0.698229 -0.475752 -0.534917
-0.211326 -0.167060 -0.053565 -0.119031 0.146412 -0.982036
-0.320934 -0.320975 0.032307 0.538414 0.834315 0.118443
0.359282 0.304733 0.064709 -0.243854 -0.966445 0.080742
-0.064739 -0.193756 0.052756 0.495811 -0.298939 -0.815357
-0.135731 -0.234878 -0.092142 -0.405077 0.339661 -0.848848
0.149140 0.283998 -0.048226 -0.088413 0.148586 -0.984939
-0.048659 -0.165763 0.058051 -0.495611 0.297055 0.816166
0.335316 0.268701 0.027044 -0.224545 -0.973078 -0.051956
0.090200 0.087867 -0.071662 0.212234 -0.095386 -0.972552
0.263268 0.419148 -0.104170 -0.102570 0.314447 -0.943717
0.242267 0.411020 -0.086547 -0.660583 -0.647814 -0.379429
0.066855 0.030824 0.090490 0.796168 -0.580190 -0.171742
-0.212343 -0.189093 -0.069255 -0.808816 0.559468 0.181144
-0.352412 -0.329211 -0.084148 -0.230243 0.888262 -0.397465
-0.149854 -0.079669 -0.047987 -0.119003 0.146390 -0.982043
-0.245663 -0.434238 -0.093914 -0.594398 -0.801786 -0.061886
0.114784 0.268581 0.074886 -0.774826 0.595794 -0.211363
0.129876 0.103657 -0.073914 0.773867 -0.591860 0.225460
0.094731 0.063746 0.100790 0.238237 -0.264827 0.934403
-0.114086 -0.263296 -0.053658 0.680596 -0.504548 -0.531244
0.223130 0.178794 -0.054145 0.646875 -0.421824 -0.635309
0.238740 0.205444 -0.024154 0.704229 -0.473590 -0.528937
-0.191261 -0.259013 -0.101162 -0.778355 0.584600 -0.228926
-0.163122 -0.164710 -0.085377 -0.641211 0.496435 -0.585150
-0.133661 -0.045307 -0.046350 0.199045 -0.079529 -0.976758
0.158513 0.318219 0.085758 0.108017 -0.151020 0.982611
0.030606 0.104582 0.096782 0.777957 -0.590511 0.214663
-0.170023 -0.242876 -0.097989 0.688690 -0.496898 -0.528014
-0.250444 -0.203843 -0.025534 -0.418709 0.348040 -0.838779
-0.177682 -0.099824 0.022791 0.103758 -0.159268 0.981768
-0.069591 0.038825 0.034677 -0.213614 0.067770 0.974565
-0.190347 -0.350788 -0.080011 -0.398722 0.350892 -0.847287
0.328251 0.379084 -0.102178 0.291052 -0.102035 -0.951251
0.081972 0.048087 0.080458 0.630430 -0.523446 0.573204
-0.192053 -0.323392 -0.102574 0.351215 -0.249024 -0.902572
-0.267427 -0.230448 0.004990 -0.410130 0.357485 -0.839046
-0.242496 -0.266826 0.047510 -0.809942 0.559836 0.174865
-0.224319 -0.175766 -0.027872 -0.658224 0.494273 -0.567834
0.077356 0.054061 0.094603 -0.699103 0.473284 0.535964
-0.220399 -0.234688 0.056068 -0.782327 0.585118 -0.213545
0.101122 0.258880 0.087809 -0.571337 0.379354 0.727780
0.357750 0.357209 0.015325 0.594395 0.801789 0.061883
-0.135125 -0.040847 -0.014056 -0.413453 0.355293 -0.838345
-0.216090 -0.398825 0.037118 -0.303334 -0.918519 0.253597
0.100057 0.119345 -0.078042 0.700938 -0.480765 -0.526831
0.287772 0.252244 0.038423 0.532855 -0.634722 0.559636
0.132432 0.011920 0.012925 -0.212471 0.084744 0.973486
-0.281607 -0.253113 -0.030422 -0.418735 0.348057 -0.838759
0.123981 0.304893 0.028686 -0.691519 0.477752 0.541807
-0.003355 0.146035 0.000738 -0.111047 0.154489 -0.981734
-0.150414 -0.328635 0.015429 -0.217864 0.075080 0.973087
0.188789 0.264747 0.116215 -0.777274 0.591413 -0.214651
-0.011972 0.139672 0.007071 -0.206461 0.074525 0.975613
-0.056389 -0.078583 -0.100817 -0.796307 0.583033 0.161143
-0.165265 -0.080422 -0.045122 -0.201120 0.079436 0.976340
-0.224447 -0.194687 0.038941 -0.644424 0.510371 -0.569420
-0.251352 -0.220514 -0.056218 -0.123532 0.140298 -0.982373
-0.146439 -0.262259 -0.084408 0.682928 -0.502924 -0.529789
-0.074766 -0.131930 0.067589 -0.221566 0.064735 0.972994
0.085690 0.058322 -0.076452 -0.396629 0.351143 -0.848165
-0.167714 -0.281499 -0.097033 -0.636202 0.506474 -0.582006
-0.026642 -0.035707 0.096193 -0.066568 -0.058199 0.996083
-0.314989 -0.282335 -0.013821 0.682399 0.716481 0.144864
0.015926 0.192119 0.005876 -0.799369 0.594914 -0.084176
-0.242947 -0.328986 0.053789 0.861760 -0.455547 0.223262
0.184673 0.474718 0.062693 -0.771337 0.594727 0.226580
-0.066489 -0.239031 -0.043949 0.756304 -0.569481 -0.322017
-0.004822 0.141981 0.037224 -0.406479 0.362466 -0.838685
0.282675 0.227456 0.028896 0.100522 -0.148347 0.983813
0.066302 -0.076929 0.002720 0.785355 -0.616879 0.051747
-0.089988 0.017415 0.032502 0.104065 -0.158855 0.981802
-0.224733 -0.309398 0.050397 0.624132 -0.532960 0.571326
-0.131900 -0.061910 -0.048083 -0.418561 0.350549 -0.837808
-0.013650 -0.090955 -0.090143 0.634264 -0.510648 0.580472
0.004974 -0.006067 -0.099540 0.065877 -0.002488 -0.997825
-0.232131 -0.200278 -0.055745 -0.123574 0.140329 -0.982363
0.153256 0.276356 0.103758 -0.775902 0.593778 -0.213081
0.029313 -0.063521 0.054082 0.790466 -0.588200 -0.170837
0.208757 0.320278 0.114882 -0.571162 -0.815808 0.090727
-0.090201 -0.073995 -0.093983 0.698846 -0.484859 -0.525858
-0.267864 -0.227550 0.012387 0.280963 -0.279131 0.918230
0.284955 0.264140 0.075575 -0.244229 -0.947997 0.204096
-0.179303 -0.356829 -0.006042 0.755283 -0.617821 0.218736
-0.086957 -0.058166 0.078288 0.634734 -0.520560 0.571078
-0.199299 -0.112807 -0.018759 0.206207 -0.072726 -0.975802
-0.100399 -0.199157 -0.099719 0.351032 -0.224136 -0.909142
0.291645 0.404925 0.032024 0.594395 0.801788 0.061888
0.359993 0.360224 -0.045270 0.594400 0.801785 0.061885
0.179454 0.182450 0.101908 0.798610 -0.576912 -0.171451
-0.041733 0.001730 -0.076914 -0.640153 0.497984 -0.584993
0.084175 0.217192 0.078287 0.104854 -0.155289 0.982289
0.003203 -0.128266 -0.028002 0.626059 -0.524581 0.576945
0.249219 0.430414 0.109286 0.594397 0.801787 0.061888
0.281637 0.267700 0.099477 0.512435 -0.420657 0.748638
0.372042 0.313928 0.111666 0.319669 -0.791608 0.520739
0.321971 0.388249 -0.043183 0.594395 0.801789 0.061883
-0.302467 -0.397674 -0.022046 -0.594396 -0.801788 -0.061888
-0.194839 -0.253083 0.068422 -0.773052 0.597057 -0.214272
0.113689 0.286873 -0.005693 -0.793369 0.581081 0.181412
-0.222766 -0.275916 -0.093164 0.201695 -0.111941 -0.973030
0.285687 0.231677 0.029225 0.100522 -0.148347 0.983813
0.278501 0.413509 0.047057 0.594398 0.801786 0.061888
0.014355 0.172211 0.046989 0.401656 -0.362121 0.841155
-0.181958 -0.156964 -0.078439 0.212326 -0.100010 -0.972068
-0.094436 -0.231218 0.048110 0.695444 -0.480907 -0.533934
-0.235458 -0.181114 0.015971 0.537755 -0.430750 0.724758
-0.362592 -0.325352 -0.002340 0.168949 0.969118 0.179630
-0.168675 -0.101588 -0.027498 -0.790478 0.575514 -0.209590
-0.246287 -0.410196 -0.122559 0.336273 -0.268170 -0.902776
-0.262422 -0.231691 -0.013391 -0.712105 0.449263 0.539508
-0.095510 -0.085125 0.068582 0.092742 -0.168588 0.981314
-0.260369 -0.321969 0.045786 0.274623 0.624769 0.730921
-0.101083 0.000072 0.030872 0.104065 -0.158855 0.981802
-0.099318 -0.195204 -0.098557 -0.771215 0.594913 -0.226511
0.135009 0.275275 0.082211 -0.204295 0.083081 0.975377
0.159706 0.054453 0.015193 -0.213367 0.083536 0.973394
-0.255255 -0.216546 -0.056992 0.197265 -0.082170 -0.976901
-0.109666 -0.014663 -0.034781 -0.701468 0.462835 0.541965
0.103477 0.033669 0.065483 0.793864 -0.583732 -0.170398
-0.167950 -0.121677 0.037339 -0.785608 0.581148 -0.212336
-0.133779 -0.306335 -0.042540 0.620755 -0.531766 0.576097
0.056822 0.189499 0.061311 -0.798229 0.575564 0.177642
-0.296953 -0.397174 -0.081485 -0.594397 -0.801786 -0.061888
0.213938 0.288061 -0.067315 -0.628270 0.515629 -0.582584
0.104017 0.252618 0.068090 -0.793681 0.581646 0.178209
0.173682 0.175069 0.110919 0.237628 -0.250664 0.938456
-0.061874 -0.085360 -0.103680 0.040279 0.016587 -0.999051
-0.294418 -0.404448 -0.011604 -0.594394 -0.801789 -0.061889
0.100963 0.226521 -0.053578 0.219994 -0.089912 -0.971349
0.218481 0.126623 0.021883 -0.213392 0.083553 0.973387
0.186447 0.092438 0.018220 0.099043 -0.150104 0.983697
0.197539 0.272287 0.122218 -0.005028 -0.061352 0.998104
-0.063736 -0.143105 0.074720 0.794566 -0.582345 -0.171870
-0.121144 -0.022604 -0.039935 -0.488897 0.293096 0.821629
0.032081 -0.114949 -0.003442 -0.095679 0.151998 -0.983739
-0.199257 -0.125148 -0.052703 -0.732157 0.540673 -0.414268
-0.283031 -0.396455 -0.124415 -0.594400 -0.801785 -0.061881
0.199274 0.166617 -0.047669 -0.096412 0.145736 -0.984615
0.177744 0.086327 -0.025788 -0.394786 0.358543 -0.845926
-0.337994 -0.312825 -0.030891 -0.998752 -0.015914 -0.047347
0.103929 0.193724 -0.083448 -0.210733 0.225452 -0.951190
-0.362284 -0.347162 0.023285 -0.847345 -0.494587 0.193369
0.106719 0.142237 -0.081560 -0.773880 0.590679 -0.228492
0.198010 0.323331 0.118858 -0.300953 0.168308 0.938669
0.371225 0.352668 -0.055251 0.594651 0.801630 0.061480
0.046378 0.087230 0.086961 -0.495854 0.292477 0.817671
-0.237524 -0.315530 -0.097781 -0.409141 0.331907 -0.849965
0.204928 0.161184 -0.029526 0.699170 -0.480158 -0.529726
0.249851 0.213935 0.062028 0.103067 -0.147275 0.983711
0.057698 0.237046 0.008380 -0.109693 0.156329 -0.981595
-0.142945 -0.330103 0.014783 0.640143 -0.572052 0.512810
-0.136335 -0.313401 0.017689 -0.489529 0.307334 0.816031
-0.050519 -0.142795 -0.072541 0.484194 -0.322856 -0.813216
-0.145960 -0.234102 -0.089037 -0.111989 0.122139 -0.986175
0.217826 0.456921 0.067379 0.594395 0.801788 0.061890
0.173596 0.334403 0.087242 0.008742 -0.280824 0.959719
-0.247640 -0.232955 0.020789 -0.814550 0.552758 0.175974
-0.249869 -0.357032 0.064977 0.572887 0.685885 0.448734
-0.092836 -0.271385 -0.048466 0.752653 -0.566102 -0.336217
-0.012181 -0.080507 -0.094065 -0.771504 0.594556 -0.226459
0.127555 0.038672 0.034124 0.792348 -0.586182 -0.169040
-0.025953 -0.088780 -0.084499 -0.400010 0.346657 -0.848423
-0.194267 -0.389318 -0.084284 0.878238 0.141045 -0.456952
-0.278392 -0.225268 -0.024140 -0.822430 0.559461 -0.103013
0.193969 0.345903 -0.063344 -0.360639 0.351736 -0.863841
0.092551 0.152624 0.091421 -0.209934 0.077695 0.974624
0.234290 0.396207 0.134774 -0.308872 0.302351 0.901766
-0.021176 -0.041454 -0.101178 0.065877 -0.002488 -0.997825
-0.162003 -0.090367 0.009058 -0.789058 0.576845 -0.211277
-0.152829 -0.330876 0.008766 0.489136 -0.309766 -0.815347
-0.029020 -0.055803 -0.087098 0.694118 -0.489773 -0.527562
0.137523 0.247976 -0.057505 -0.626542 0.516454 -0.583713
0.272082 0.211858 0.027627 0.100522 -0.148347 0.983813
-0.187128 -0.114128 -0.052485 0.487273 -0.292906 -0.822661
0.201620 0.446230 0.123611 -0.655429 0.372365 0.657082
0.115267 0.279170 0.083272 -0.404298 0.363135 -0.839450
-0.182961 -0.397950 -0.041428 0.594400 0.801785 0.061886
-0.118925 -0.160223 0.082561 -0.064739 -0.062510 0.995942
-0.113667 -0.040879 0.034872 -0.706914 0.458383 0.538663
0.185793 0.136880 -0.039117 0.773753 -0.592676 0.223699
0.120361 0.297594 0.033007 -0.793196 0.581827 0.179772
0.159783 0.402411 0.042279 -0.989917 0.114664 0.083160
-0.031365 -0.028633 0.082659 -0.704273 0.464757 0.536657
0.281271 0.408239 0.088721 0.594400 0.801785 0.061888
-0.121602 -0.015233 -0.046246 -0.726242 0.540497 -0.424777
0.123519 0.146837 -0.072098 0.496754 -0.308126 -0.811353
-0.171324 -0.185018 -0.099472 0.801076 -0.576654 -0.160459
-0.000807 -0.047135 0.081835 -0.700501 0.471297 0.535889
-0.008229 -0.062710 0.088405 -0.795465 0.580692 0.173297
-0.245331 -0.225962 0.034544 -0.644424 0.510371 -0.569420
0.318660 0.381912 0.070706 0.594397 0.801787 0.061888
-0.192660 -0.361715 -0.064968 0.979411 -0.161787 -0.120743
-0.217992 -0.312479 -0.095891 0.480016 -0.330662 -0.812556
-0.210400 -0.161692 -0.035169 -0.790478 0.575515 -0.209588
0.204879 0.274424 -0.071519 -0.772677 0.592334 -0.228275
0.319594 0.270370 -0.005957 0.781137 -0.537580 -0.317541
0.104028 0.077789 0.102400 0.238237 -0.264827 0.934403
0.345990 0.356220 0.141070 0.594398 0.801786 0.061888
0.175607 0.398320 -0.033001 -0.791161 0.327152 -0.516755
0.249684 0.222915 -0.026806 0.801642 -0.574535 -0.165168
-0.241320 -0.279873 0.048978 0.388992 -0.379342 0.839515
-0.207354 -0.446930 -0.058598 0.739167 -0.614744 -0.275177
-0.150220 -0.084050 -0.048596 -0.119031 0.146412 -0.982036
0.026214 -0.034471 -0.073418 0.790822 -0.589477 -0.164674
-0.030862 -0.098498 0.075623 0.794871 -0.581938 -0.171839
0.356303 0.310536 -0.007611 -0.443414 -0.888401 -0.118859
-0.187444 -0.150311 0.047009 0.399404 -0.367498 0.839894
-0.197863 -0.155676 0.051140 -0.616933 0.370100 0.694564
0.076387 0.258470 0.047744 -0.108729 0.155010 -0.981911
-0.221125 -0.390432 0.051093 0.233775 -0.616250 0.752054
0.060545 0.188987 -0.046290 -0.797339 0.575277 0.182502
0.318869 0.386157 0.013710 0.594396 0.801788 0.061889
0.019778 0.141011 -0.037591 -0.647676 0.510692 -0.565428
-0.200429 -0.269300 0.064973 0.771441 -0.598645 0.215645
-0.229776 -0.310513 0.055549 0.771455 -0.598651 0.215578
0.218066 0.324758 -0.064436 -0.306102 -0.854352 -0.419981
-0.092985 -0.262580 -0.017164 0.486775 -0.315006 -0.814752
-0.209306 -0.226166 -0.103822 -0.355835 0.281371 -0.891186
0.241409 0.433230 0.147803 0.594400 0.801785 0.061885
-0.056367 -0.120136 0.073398 -0.700862 0.470853 0.535808
-0.248315 -0.239696 -0.068886 -0.795512 0.568842 -0.208759
0.403043 0.320756 -0.007255 0.801848 -0.533255 -0.269589
0.368446 0.308934 -0.001369 -0.491321 -0.865724 -0.095531
-0.156939 -0.109062 -0.084013 0.705272 -0.477591 -0.523926
-0.159993 -0.108602 0.043658 -0.642553 0.512928 -0.569237
0.287255 0.414528 -0.050224 0.594395 0.801788 0.061888
-0.148767 -0.038280 -0.010401 -0.816896 0.576446 -0.019770
0.042847 0.182912 0.049071 -0.489185 0.296891 0.820094
0.126353 0.284947 0.063986 -0.691847 0.478838 0.540427
0.308968 0.330173 0.112514 0.028697 -0.733091 0.679525
0.213342 0.468271 -0.036594 0.594397 0.801787 0.061888
-0.105421 -0.241611 0.052096 -0.695620 0.479199 0.535240
0.320830 0.275104 0.081306 -0.278229 -0.948771 0.149740
0.039218 -0.088079 0.038742 -0.490982 0.305354 0.815902
0.075567 0.230916 -0.026641 -0.111316 0.156474 -0.981389
0.285474 0.236231 -0.012969 -0.095971 0.149006 -0.984168
-0.300538 -0.371643 -0.131493 -0.148479 0.097755 -0.984072
0.107369 0.022878 -0.033345 0.490442 -0.312628 -0.813468
-0.103856 -0.039074 0.056126 0.098276 -0.163983 0.981556
0.163017 0.049358 0.010157 0.801625 -0.597752 -0.009436
0.030735 0.048564 -0.080001 -0.397198 0.348175 -0.849122
0.077257 -0.010442 0.046814 0.392636 -0.368131 0.842803
-0.005837 0.029411 0.079359 0.098644 -0.160769 0.982050
0.162708 0.127992 -0.051050 0.216036 -0.087545 -0.972453
-0.150762 -0.260792 0.064964 0.702122 -0.470503 -0.534464
-0.025854 0.109064 -0.036682 0.200835 -0.077133 -0.976584
0.024093 0.081779 0.085466 0.397562 -0.367969 0.840561
0.357093 0.319817 0.126963 0.130396 -0.813008 0.567464
-0.038733 -0.187246 -0.013876 0.486775 -0.315006 -0.814752
-0.028428 -0.040561 -0.094168 -0.776361 0.587280 -0.228836
-0.175025 -0.126781 0.052412 0.641143 -0.513623 0.570200
-0.179233 -0.172238 -0.078440 -0.103422 0.128382 -0.986317
-0.007317 0.067962 -0.064559 -0.097624 0.136476 -0.985821
0.120792 0.163824 0.110586 0.797805 -0.577478 -0.173282
-0.258224 -0.429962 -0.028672 -0.594397 -0.801787 -0.061888
0.104665 0.049164 0.073934 -0.215399 0.075874 0.973574
0.102765 0.273146 -0.009501 -0.793369 0.581081 0.181412
0.087749 -0.034842 0.039929 0.214904 -0.081389 -0.973238
0.139710 0.140021 -0.067741 -0.095525 0.144381 -0.984901
0.354320 0.350433 0.136035 0.594396 0.801788 0.061889
-0.233645 -0.254173 0.047997 -0.809942 0.559836 0.174865
0.216546 0.286477 0.108126 0.639201 -0.513173 0.572779
0.280822 0.217596 -0.011420 0.769325 -0.530896 -0.355371
-0.074478 0.031479 0.015723 -0.787948 0.578400 -0.211166
0.153292 0.368088 0.009123 -0.439937 -0.750625 -0.492968
-0.221403 -0.423233 0.023873 0.693823 0.700770 0.165926
0.000761 -0.003355 0.085784 0.629535 -0.526195 0.571668
0.163742 0.363061 -0.027343 -0.221044 -0.928456 -0.298510
0.285323 0.386460 0.169024 0.114268 0.173986 0.978096
0.191970 0.299015 -0.061659 0.501551 -0.304243 -0.809866
0.087233 0.259204 0.051963 0.107872 -0.153894 0.982181
-0.241072 -0.215326 0.015688 -0.505454 0.274551 0.818009
-0.116848 -0.028533 -0.031492 -0.806952 0.562625 0.179672
0.085401 0.037016 -0.061744 0.490789 -0.314223 -0.812644
-0.104753 -0.075843 0.067514 -0.805516 0.565985 0.175513
0.157018 0.263536 -0.078125 -0.197683 0.228845 -0.953180
-0.243059 -0.397382 -0.112750 0.692444 0.667152 -0.274645
-0.299515 -0.262994 -0.029003 0.207434 -0.071053 -0.975665
-0.139739 -0.076557 -0.074899 -0.482368 0.299762 0.823082
0.212157 0.209776 -0.050382 0.704408 -0.474427 -0.527947
-0.132005 -0.143760 0.062032 -0.221250 0.062221 0.973230
0.345695 0.281739 0.013016 0.997179 0.039261 -0.063971
0.209854 0.210732 -0.074154 0.385244 -0.204136 -0.899953
-0.046082 -0.166690 0.052972 0.695444 -0.480907 -0.533934
-0.140634 -0.226587 0.059610 -0.499477 0.289628 0.816480
-0.232946 -0.328311 -0.105518 0.983672 -0.138614 -0.114785
-0.008084 -0.009710 0.094045 0.799963 -0.574530 -0.173133
0.137200 0.341723 0.016416 -0.108425 0.158251 -0.981428
-0.002905 0.092767 -0.064815 0.498211 -0.310467 -0.809565
0.180315 0.133325 -0.051421 -0.394096 0.356868 -0.846955
-0.053528 -0.072165 0.091327 0.799981 -0.574553 -0.172971
0.169768 0.344086 -0.050900 -0.516588 0.451141 -0.727742
-0.193900 -0.354219 0.020557 0.757615 -0.615447 0.217356
-0.046850 0.069986 -0.013515 -0.784119 0.584327 -0.209091
-0.267797 -0.239353 0.009646 -0.218661 0.060758 0.973908
-0.099545 -0.214052 -0.073507 0.205829 -0.101540 -0.973306
0.310446 0.284233 -0.038649 -0.232930 -0.911682 -0.338496
0.225947 0.352502 -0.074018 -0.533999 -0.380864 -0.754843
0.150915 0.327751 0.091000 -0.571337 0.379354 0.727780
0.059501 0.239762 0.046630 -0.107835 0.156216 -0.981819
0.148760 0.248802 -0.071499 0.703342 -0.478755 -0.525456
0.207786 0.291581 0.112850 -0.796363 0.579000 0.174827
-0.236776 -0.338197 0.046288 0.355237 0.217523 0.909115
0.092193 0.262906 0.052170 -0.204009 0.080826 0.975627
-0.003216 -0.062894 0.073354 0.768550 -0.601875 0.216974
0.226321 0.233850 -0.053198 0.800880 -0.576031 -0.163642
-0.110221 -0.092308 -0.098898 -0.272469 0.240247 -0.931688
-0.334886 -0.368444 -0.089368 -0.594399 -0.801785 -0.061888
-0.013920 0.116294 0.017740 -0.803063 0.568431 0.178817
-0.261611 -0.427123 -0.032933 -0.594397 -0.801787 -0.061888
-0.022047 0.083024 -0.071576 -0.509811 0.418863 -0.751430
0.362236 0.324415 0.129576 0.505240 -0.491342 0.709448
-0.331054 -0.368069 0.061248 -0.591305 -0.047327 0.805058
0.103717 0.099700 0.091765 -0.491918 0.299789 0.817400
0.038887 -0.093587 -0.037756 -0.392587 0.361464 -0.845706
0.043873 -0.072972 -0.018801 0.764327 -0.605741 0.221095
-0.294588 -0.391300 0.073448 -0.088492 -0.098935 0.991151
-0.274150 -0.423901 0.045758 -0.594398 -0.801786 -0.061888
-0.272952 -0.413822 -0.096325 -0.594398 -0.801786 -0.061887
0.252568 0.439273 -0.037663 0.594399 0.801785 0.061888
-0.008063 -0.082058 -0.073094 0.690531 -0.493131 -0.529140
