0.486235 0.463156 0.528426 -0.00141424 -0.360255 0.932853
0.194644 0.401973 0.552927 0.00612291 -0.0315405 0.999484
0.2173 0.350208 0.457294 0.997542 -0.0118905 -0.0690548
0.733472 0.446253 0.513996 0.0236432 -0.812022 0.583147
0.166977 0.627676 0.528536 0.000401211 0.349358 0.936989
0.314484 0.503782 0.46816 -0.0287204 0.206677 -0.977988
0.624528 0.494346 0.53222 0.0163339 0.0641342 0.997808
0.352742 0.521486 0.474935 -0.0448785 0.546102 -0.836516
0.574521 0.475828 0.467135 -0.000288424 -0.169236 -0.985576
0.320152 0.445486 0.484918 0.020432 -0.826332 -0.562812
0.515269 0.533597 0.48626 -0.0470927 0.869416 -0.491831
0.183102 0.592659 0.538176 -0.000216711 0.182645 0.983179
0.139535 0.418304 0.552608 0.00707715 -0.0177895 0.999817
0.204251 0.672773 0.505488 0.0825008 0.723714 0.685151
0.21374 0.468153 0.447874 0.655196 -0.0740505 -0.751821
0.139745 0.329621 0.452847 -0.0369588 -0.217798 -0.975294
0.708354 0.506111 0.529704 0.00873205 0.276071 0.961098
0.426338 0.530311 0.481732 -0.00340468 0.735053 -0.678001
0.217301 0.347416 0.48822 1 0.000538905 0.000721107
0.144554 0.622311 0.530453 0.00887521 0.313048 0.949696
0.145496 0.390302 0.448021 0.00884994 -0.0404489 -0.999142
0.559876 0.444402 0.485613 0.051685 -0.86163 -0.504899
0.153737 0.402165 0.447596 -0.00353767 -0.0338187 -0.999422
0.2173 0.47683 0.533326 0.886714 -0.151418 0.436818
0.2173 0.396654 0.451033 0.822782 -0.0142196 -0.568179
0.167879 0.54111 0.545967 0.00175651 0.126457 0.991971
0.214902 0.560937 0.543303 0.434648 0.16913 0.884577
0.325783 0.508984 0.529262 0.0113028 0.295545 0.955262
0.567886 0.455017 0.475207 0.00356782 -0.534533 -0.84514
0.217078 0.518743 0.451367 0.714096 0.131294 -0.687626
0.468559 0.518791 0.472977 0.0258577 0.467093 -0.88383
0.104448 0.436424 0.447082 -0.307028 -0.128016 -0.943051
0.217302 0.416352 0.544737 0.863734 -0.105037 0.49288
0.0985132 0.533864 0.497624 -0.576503 0.817095 0
0.178396 0.389268 0.448078 5.51319e-05 -0.0542705 -0.998526
0.216475 0.327268 0.519344 0.880707 -0.469229 0.0646494
0.27456 0.451599 0.479003 -0.0137802 -0.655634 -0.754953
0.779954 0.475072 0.530077 0.006468 -0.197795 0.980222
0.214145 0.674604 0.504257 0.392118 0.702115 0.594372
0.191891 0.457197 0.552338 -0.00123138 0.0246986 0.999694
0.217402 0.351356 0.509779 0.999996 0.00167183 0.00226066
0.176999 0.484526 0.448658 -0.00222981 0.0540212 -0.998537
0.308645 0.452928 0.521364 -0.0290581 -0.626457 0.778914
0.461688 0.531559 0.482911 -0.00998471 0.748063 -0.663552
0.0992381 0.442356 0.449805 -0.821968 0.218932 -0.525774
0.202891 0.548536 0.454715 -0.0203522 0.123101 -0.992185
0.263209 0.483848 0.467121 -0.0207007 -0.0788561 -0.996671
0.388705 0.442985 0.487316 0.0289931 -0.904552 -0.425377
0.753492 0.527417 0.480963 0.014507 0.718239 -0.695645
0.749709 0.513525 0.527607 0.0121081 0.385773 0.922514
0.226148 0.449193 0.481714 0.338429 -0.592968 -0.730654
0.0924473 0.528504 0.514087 -0.401878 0.803579 0.439039
0.217301 0.428408 0.494911 0.993386 -0.107039 -0.041568
0.174188 0.409258 0.552412 -0.00450619 -0.0246738 0.999685
0.217301 0.542154 0.533858 0.982591 0.0933522 0.160627
0.320256 0.440869 0.502969 0.0320342 -0.978757 0.202505
0.156638 0.454493 0.447405 -0.00196098 0.0383061 -0.999264
0.756355 0.524726 0.520215 0.0063799 0.636984 0.770851
0.177318 0.675061 0.495862 -0.121962 0.886402 -0.44656
0.778542 0.517002 0.524858 0.0361772 0.470245 0.881794
0.416016 0.509427 0.530201 -0.00839939 0.335827 0.941886
0.217313 0.559165 0.461583 0.874545 0.243966 -0.419108
0.643301 0.494604 0.532092 0.000892715 0.055481 0.998459
0.16104 0.666528 0.509541 0 0.525962 0.850508
0.180669 0.36722 0.449378 0.00171539 -0.0800895 -0.996786
0.101124 0.641081 0.523071 -0.50415 0.431948 0.747833
0.201184 0.349401 0.548996 0.00464206 -0.098965 0.99508
0.114175 0.435827 0.552723 0 0 1
0.729416 0.519144 0.524278 -0.000141296 0.478521 0.878076
0.406982 0.454228 0.475642 -0.0131787 -0.552841 -0.833182
0.27657 0.446518 0.483925 0.0203226 -0.803955 -0.594342
0.699638 0.528992 0.481662 0.105627 0.77743 -0.620037
0.356414 0.519149 0.473691 -0.0103553 0.522788 -0.8524
0.679236 0.530618 0.482893 -0.0469094 0.792955 -0.607472
0.279452 0.494911 0.467101 0.0051689 0.0623235 -0.998043
0.306809 0.477642 0.467375 -0.0104189 -0.143914 -0.989535
0.388587 0.530172 0.481805 -0.00449996 0.810462 -0.585774
0.217301 0.478865 0.546487 0.97292 0.0894342 0.213138
0.217312 0.422599 0.539284 0.997397 0.0388242 0.0607552
0.794664 0.524995 0.51935 0.0272482 0.641922 0.766286
0.217301 0.595284 0.47601 0.993358 0.0593667 -0.0985671
0.175878 0.598725 0.462623 -0 0.204023 -0.978966
0.267828 0.490784 0.531998 0.0027126 0.0188821 0.999818
0.110579 0.520208 0.548291 -0.000336867 0.097766 0.995209
0.0834325 0.489387 0.520084 -0.986538 -0.0173005 0.162614
0.513443 0.513803 0.528275 0.0179983 0.392607 0.91953
0.218396 0.462028 0.525869 0.639949 -0.336718 0.690714
0.282592 0.509483 0.469977 0.0114116 0.314396 -0.949223
0.105845 0.421757 0.552628 -0.189046 -0.0203604 0.981757
0.102239 0.442979 0.552609 -0.616812 -0.0862952 0.782366
0.186387 0.637911 0.524485 -0.00329572 0.387705 0.921778
0.755898 0.453385 0.520751 -0.022306 -0.634428 0.77266
0.117361 0.622777 0.469491 -0.004817 0.316223 -0.948673
0.175666 0.542179 0.453954 0.000703454 0.122235 -0.992501
0.0992381 0.574229 0.471146 -0.980458 0.0767377 -0.181144
0.156456 0.528062 0.452285 0.00164183 0.109962 -0.993934
0.577226 0.485729 0.532611 0.00614172 -0.0238984 0.999696
0.2173 0.426212 0.546264 0.785043 0.0537315 0.617106
0.194049 0.635604 0.474362 -0.00184468 0.378377 -0.92565
0.472932 0.440588 0.493891 0.00368167 -0.975209 -0.221257
0.112934 0.367269 0.449373 0.00164368 -0.0760912 -0.9971
0.217301 0.358249 0.483439 0.999999 -0.000896983 0.000604377
0.796293 0.447827 0.514915 0.0108522 -0.760046 0.649779
0.519545 0.536856 0.493625 0.0319272 0.963997 -0.26399
0.318038 0.451443 0.52013 0.0138714 -0.681461 0.731723
0.249157 0.450488 0.518619 0.0113592 -0.699986 0.714066
0.266758 0.442278 0.507319 0.0285883 -0.891601 0.451918
0.826151 0.45821 0.475785 0.0122873 -0.500714 -0.865526
0.202049 0.619128 0.531478 0.00481324 0.302106 0.953262
0.617624 0.522059 0.523632 0.0336789 0.551515 0.833485
0.787275 0.523744 0.478234 0.0133609 0.634172 -0.773077
0.128423 0.475637 0.447699 -0.00916406 0.0469861 -0.998854
0.148291 0.6554 0.483798 -0.00713331 0.472028 -0.881555
0.525665 0.533543 0.51262 0.0185502 0.870139 0.492458
0.748329 0.517481 0.473862 -0.00251982 0.475093 -0.879932
0.111919 0.320094 0.510038 -0.102522 -0.994541 -0.0194148
0.134564 0.621823 0.469183 0.00218267 0.312193 -0.950016
0.121733 0.515723 0.548708 -0.00361265 0.0805967 0.99674
0.607521 0.524513 0.476862 -0.0228661 0.679523 -0.733297
0.399703 0.515948 0.471829 -0.0222246 0.464593 -0.885245
0.205265 0.354023 0.549792 0.0268061 -0.0775146 0.996631
0.181867 0.392296 0.551882 0.0107466 -0.0393631 0.999167
0.25239 0.532333 0.512199 0.0166537 0.909461 0.415455
0.377739 0.504746 0.468099 0.00182571 0.271699 -0.962381
0.644157 0.536304 0.49367 0.0640733 0.97523 -0.211711
0.320006 0.533841 0.487901 -0.0211666 0.88435 -0.466345
0.2173 0.347796 0.501716 1 0 0
0.2173 0.382085 0.470059 0.999996 -0.00145216 0.00248392
0.0992373 0.435271 0.482233 -1 -0 -0
0.2173 0.616288 0.479708 0.99912 -0.00141848 -0.0419255
0.755707 0.451294 0.518893 -0.0107124 -0.679051 0.734013
0.0992381 0.574137 0.484018 -1 -0 -0
0.445646 0.498299 0.466616 0.00348022 0.149872 -0.988699
0.595705 0.441546 0.490636 -0.0523545 -0.954307 -0.294205
0.865556 0.443348 0.504139 0.0296863 -0.986119 0.163364
0.133887 0.646141 0.479036 0.00367258 0.42776 -0.903885
0.315399 0.534192 0.510284 0.0173042 0.854703 0.518828
0.514205 0.536623 0.492368 -0.0181183 0.950561 -0.310009
0.902112 0.462914 0.523026 0.281288 -0.413087 0.866162
0.30485 0.463602 0.527508 0.0340021 -0.409463 0.911693
0.530753 0.517672 0.526224 0.00222031 0.434672 0.900586
0.565527 0.531361 0.516051 0.0214258 0.818334 0.574343
0.674503 0.442787 0.489582 0.0667714 -0.925318 -0.373266
0.0992381 0.4715 0.455052 -0.913276 0.0453083 -0.404814
0.155256 0.379961 0.551204 -0.000239538 -0.0553369 0.998468
0.870003 0.520935 0.477319 -0.0292406 0.598975 -0.800234
0.325739 0.441177 0.504521 0.0324688 -0.984939 0.169823
0.0992381 0.447157 0.47688 -0.914726 -0.30211 -0.268337
0.215744 0.594402 0.461973 0.652734 -0.00220594 -0.757584
0.110665 0.319846 0.469629 -0.165903 -0.985695 -0.0297052
0.845516 0.446464 0.487563 0.0488792 -0.832675 -0.551601
0.217308 0.457931 0.525145 0.602478 -0.457766 0.653812
0.779157 0.442127 0.502211 0.0306333 -0.982128 0.185705
0.429629 0.471996 0.530693 -0.0141916 -0.213935 0.976745
0.117441 0.667561 0.508906 -0.00558379 0.539062 0.842247
0.76885 0.469885 0.528734 0.00284123 -0.321951 0.946752
0.762916 0.468239 0.470487 0.011886 -0.333191 -0.942785
0.522527 0.493259 0.466234 0.00306368 0.0520904 -0.998638
0.646898 0.46566 0.528494 -0.0237177 -0.373167 0.927461
0.660665 0.53675 0.496701 -0.0199459 0.999733 -0.0116606
0.2173 0.56733 0.478837 1 0 0
0.46836 0.440137 0.502554 -0.0280257 -0.980641 0.193796
0.0992365 0.668493 0.493962 -0.935705 0.194599 -0.294258
0.115831 0.452752 0.552422 0.00176326 0.0218106 0.999761
0.558703 0.467803 0.529479 0 -0.305566 0.952171
0.30102 0.441231 0.503724 -0.000601481 -0.99073 0.135843
0.290226 0.513537 0.527601 -0.00638867 0.380513 0.924754
0.317454 0.473399 0.530586 -0.0134693 -0.234906 0.971925
0.871549 0.459199 0.522849 -0.0307761 -0.535171 0.844183
0.0992381 0.573715 0.477206 -0.998166 0.0298246 -0.0526848
0.288894 0.494651 0.532252 -0.0101237 0.0780404 0.996899
0.148521 0.667285 0.509105 0.00163648 0.537386 0.843335
0.35534 0.442442 0.509405 -0.0168552 -0.882875 0.469305
0.08343 0.48928 0.495865 -0.999999 -0.000712763 -0.000870383
0.217301 0.65233 0.509001 0.990436 0.0350596 0.133443
0.187693 0.319971 0.489886 0.00639197 -0.999969 0.00464253
0.0992381 0.37239 0.519875 -1 -0.000126828 0.000470483
0.158202 0.555381 0.544098 -0.00104242 0.139217 0.990261
0.179032 0.327702 0.546529 0.0437866 -0.333552 0.941714
0.55562 0.463127 0.470914 -0.00309431 -0.379232 -0.925296
0.199838 0.485159 0.551524 0.00688602 0.0631038 0.997983
0.2173 0.388744 0.543499 0.976833 -0.057541 0.206121
0.108654 0.620189 0.53114 -0.225627 0.291554 0.929564
0.0992373 0.428766 0.497658 -1 -0 -0
0.0992381 0.600833 0.495709 -1 -0 -0
0.0992381 0.339909 0.467414 -0.999627 -0.0225601 -0.0153669
0.139646 0.320251 0.535652 -0.0558412 -0.951739 0.301785
0.127147 0.380562 0.448556 -0.00463152 -0.0554329 -0.998452
0.738085 0.441608 0.496488 -0.0136979 -0.983889 -0.178257
0.217304 0.564752 0.48946 1 0 0
0.478101 0.48721 0.532876 0.0104988 -0.0334875 0.999384
0.0992381 0.632196 0.490274 -0.999999 -0.000532821 0.00132949
0.25811 0.500633 0.531035 0 0.158443 0.987368
0.335677 0.497225 0.53185 0.00159226 0.0995331 0.995033
0.762636 0.445583 0.486702 0.0129752 -0.876331 -0.481535
0.49478 0.533687 0.486348 0.044384 0.840954 -0.539284
0.457462 0.486674 0.466018 0.000838745 -0.0253277 -0.999679
0.381974 0.480184 0.46635 -0.0021972 -0.0941283 -0.995558
0.558161 0.45304 0.476554 -0.0150162 -0.633107 -0.773919
0.852725 0.482921 0.468557 -0.00191616 -0.10213 -0.994769
0.331026 0.536309 0.504913 -0.0587823 0.963556 0.260969
0.121569 0.320039 0.501169 0.00397901 -0.999959 0.00807466
0.2173 0.466964 0.465091 0.842962 0.102467 -0.528124
0.625813 0.536378 0.505568 -0.0117056 0.966282 0.257221
0.518407 0.490707 0.466001 0.038973 0.00994311 -0.999191
0.364004 0.462605 0.527381 0.0058006 -0.424819 0.90526
0.107248 0.319804 0.46274 -0.207374 -0.972211 -0.108635
0.443339 0.45077 0.520291 -0.0440615 -0.643885 0.763853
0.132887 0.623859 0.469344 -0 0.331756 -0.943365
0.768117 0.500058 0.5307 0.0157877 0.18517 0.98258
0.177501 0.659269 0.485412 -0.00220924 0.501902 -0.864921
0.2173 0.389595 0.533755 1 -0.000741674 0.000218029
0.08343 0.485243 0.485973 -1 -0 -0
0.0992381 0.455003 0.525142 -0.974403 -0.0128709 0.224441
0.217299 0.369518 0.489177 1 0 0
0.21717 0.463435 0.552847 0.650338 -0.129697 0.748491
0.554316 0.535707 0.489852 -0.00386478 0.898429 -0.439102
0.641237 0.516871 0.526201 -0.00174677 0.43474 0.900554
0.733344 0.494 0.467281 0.0133987 0.0703521 -0.997432
0.177414 0.362635 0.55005 -0.00447448 -0.0809142 0.996711
0.524424 0.491589 0.532735 0.0108852 0.0621316 0.998009
0.637127 0.47016 0.468515 -0.0232418 -0.267111 -0.963385
0.2173 0.530192 0.479832 0.757003 0.543404 -0.362848
0.21747 0.370847 0.452542 0.931487 -0.0177836 -0.36334
0.119322 0.466442 0.551993 -0.00627159 0.0323509 0.999457
0.182278 0.37996 0.551204 0.0137721 -0.0589514 0.998166
0.433932 0.52876 0.518484 0 0.717006 0.697067
0.142711 0.529543 0.548048 0.0082455 0.103767 0.994567
0.494864 0.510585 0.469509 0.0110271 0.297511 -0.954655
0.122307 0.392606 0.5519 -0.00657844 -0.0403481 0.999164
0.217324 0.368281 0.521987 1 0 0
0.119292 0.6767 0.502764 0.0443899 0.831997 0.553002
0.654681 0.459219 0.525776 -0.0123106 -0.504225 0.863485
0.601878 0.453323 0.522274 0.00346826 -0.585627 0.810573
0.718507 0.535693 0.494175 -0.0326135 0.955664 -0.292648
0.0992381 0.400771 0.448782 -0.771288 -0.0971157 -0.629034
0.650373 0.441546 0.492222 0.0124945 -0.927914 -0.372585
0.341451 0.495789 0.532013 -0.00656624 0.0779467 0.996936
0.407141 0.47653 0.5318 -0.00881142 -0.184788 0.982739
0.311141 0.519782 0.474341 0.00521174 0.529206 -0.848477
0.736869 0.451014 0.518889 0.00480959 -0.671413 0.741068
0.457155 0.478626 0.466741 -0.00588925 -0.15368 -0.988103
0.217301 0.609622 0.506798 0.999999 -0.000487328 -0.00102375
0.238658 0.451384 0.479664 0.0216919 -0.670337 -0.74174
0.466787 0.512776 0.528671 -0.00617955 0.329179 0.944247
0.160105 0.477174 0.551524 0.00179208 0.0537794 0.998551
0.146128 0.476593 0.448244 0.00752647 0.045591 -0.998932
0.801056 0.520266 0.522859 0.0225724 0.56099 0.827515
0.126041 0.468227 0.552644 0.00229885 0.0373853 0.999298
0.888345 0.453359 0.480521 0.0427331 -0.661386 -0.748827
0.536076 0.521122 0.474411 -0 0.47529 -0.879829
0.916665 0.475857 0.485283 0.97204 -0.0552393 -0.228225
0.227599 0.530872 0.48473 0.181254 0.920889 -0.345124
0.537317 0.51636 0.526904 0.0115075 0.394541 0.918806
0.2173 0.369012 0.469332 1 0.000210038 -0.000526371
0.08343 0.494307 0.482548 -1 -0 -0
0.108355 0.364633 0.449574 -0.188957 -0.0262153 -0.981635
0.607906 0.498527 0.531902 -0.02867 0.115556 0.992887
0.0992406 0.419131 0.465909 -1 -0 -0
0.144596 0.354942 0.450358 -0.00145357 -0.0810629 -0.996708
0.0992381 0.448199 0.528639 -0.990442 -0.0899194 0.104594
0.2173 0.533354 0.537141 0.956627 0.112778 0.268599
0.208136 0.663187 0.487768 0.432664 0.385412 -0.815021
0.272989 0.473084 0.468124 0.00846894 -0.252573 -0.967541
0.141958 0.477432 0.551513 -0.00485325 0.0587803 0.998259
0.0992381 0.359474 0.513783 -1 -0 -0
0.122968 0.618016 0.531844 0.000431116 0.296688 0.954974
0.0992381 0.359977 0.453474 -0.714016 0.0523945 -0.698166
0.217304 0.36648 0.452614 0.914335 -0.0767178 -0.397625
0.160167 0.486053 0.551031 -0.000534717 0.0705915 0.997505
0.08343 0.511619 0.50568 -1 -0 -0
0.671769 0.529214 0.480974 0.0284871 0.750609 -0.660133
0.329288 0.477254 0.531541 -0.0200335 -0.145527 0.989151
0.696773 0.443372 0.509852 -0.0491852 -0.889176 0.454914
0.185385 0.607382 0.464878 0.00292961 0.254898 -0.966963
0.102161 0.678149 0.498062 -0.755547 0.632248 -0.171498
0.110695 0.33298 0.452496 -0.0280294 -0.21878 -0.975372
0.328027 0.447846 0.517025 0.0243363 -0.714984 0.698717
0.658183 0.441375 0.505379 0.0575298 -0.96973 0.237305
0.479424 0.513411 0.528957 0.0289716 0.392163 0.919439
0.813708 0.467737 0.527631 -0.028385 -0.335366 0.94166
0.120302 0.394142 0.447839 0.0101355 -0.0337574 -0.999379
0.301761 0.466628 0.470237 -0.00185874 -0.323652 -0.946175
0.173523 0.325966 0.45361 0.0608986 -0.501473 -0.863028
0.624463 0.502701 0.531217 -0.00675281 0.230676 0.973007
0.854065 0.495313 0.468639 0.0132582 0.0913094 -0.995734
0.0992381 0.584908 0.53136 -0.944419 0.110021 0.309786
0.440786 0.533516 0.512627 -0.0144102 0.847407 0.530748
0.319049 0.445319 0.513611 -0.00400558 -0.821795 0.56977
0.0992381 0.423655 0.477857 -1 -6.07973e-05 -8.70075e-07
0.424729 0.463881 0.470518 0.0109293 -0.386573 -0.922194
0.370904 0.481828 0.466239 -0.0123958 -0.0975664 -0.995152
0.774548 0.513525 0.472092 0.0364453 0.406292 -0.913016
0.524335 0.469213 0.468901 -0.00527029 -0.287922 -0.957639
0.805691 0.459155 0.523814 0.0536241 -0.472883 0.879492
0.398328 0.481711 0.466586 -0.00861622 -0.10696 -0.994226
0.315654 0.450319 0.479713 -0.0429872 -0.707421 -0.705484
0.819271 0.475907 0.468942 0.0124353 -0.183628 -0.982917
0.150883 0.518697 0.549151 0.00321771 0.0960818 0.995368
0.911488 0.524031 0.49137 0.741384 0.582938 -0.332467
0.132917 0.618132 0.467986 -0.00417576 0.287477 -0.957778
0.582813 0.445351 0.51457 -0.0466756 -0.852209 0.521115
0.331993 0.458254 0.524901 -0.0321669 -0.500196 0.865314
0.316919 0.528535 0.480889 -0.00265076 0.730296 -0.683126
0.109187 0.392087 0.551871 -0.207092 -0.0671018 0.976018
0.217301 0.371671 0.477644 0.999999 0.000536586 -0.000987457
0.649165 0.448379 0.517525 0.0105355 -0.756851 0.653503
0.099239 0.514506 0.451382 -0.716275 0.123284 -0.686841
0.662846 0.445734 0.515207 -0.0502493 -0.811819 0.581744
0.174681 0.375042 0.448859 -0.00067475 -0.0568612 -0.998382
0.259862 0.446635 0.514745 0.0110001 -0.851037 0.52499
0.175364 0.518007 0.548495 -0.00777423 0.0935614 0.995583
0.732872 0.48539 0.531711 0.000506681 -0.0699531 0.99755
0.491861 0.488068 0.465857 0.010294 -0.00394542 -0.999939
0.829777 0.452808 0.519009 0.0177592 -0.662438 0.748906
0.089176 0.472954 0.528103 -0.384788 -0.189003 0.903447
0.26949 0.446487 0.484123 -0.00503328 -0.809541 -0.587041
0.89601 0.450448 0.515552 0.105535 -0.754338 0.647948
0.132272 0.371091 0.550717 -0.00660124 -0.0673548 0.997707
0.385771 0.505416 0.53101 -0.0182002 0.27714 0.960657
0.204246 0.324921 0.454117 -0.044307 -0.566869 -0.822615
0.853846 0.466487 0.472049 -0.00545909 -0.36381 -0.931457
0.2023 0.462666 0.552158 -0.0044329 0.0224427 0.999738
0.194036 0.626939 0.528806 0.00512113 0.345416 0.938436
0.564248 0.45045 0.47889 -0.0253916 -0.688731 -0.724572
0.105052 0.339855 0.548017 -0.303691 -0.117807 0.945459
0.495196 0.44652 0.516591 0.0106097 -0.784364 0.62021
0.123831 0.473308 0.448099 -0.0179553 0.0446636 -0.998841
0.816196 0.445033 0.509864 0.0655544 -0.877101 0.475811
0.629831 0.477459 0.531678 0.00557419 -0.165861 0.986133
0.777613 0.527924 0.517033 0.020999 0.717765 0.695969
0.0834441 0.458152 0.494864 -0.998529 -0.036445 -0.0401548
0.768682 0.448136 0.515891 -0.0310967 -0.731654 0.680966
0.132423 0.658821 0.514107 0 0.491568 0.870839
0.429587 0.509453 0.469258 -0.0203678 0.332439 -0.942905
0.217301 0.57764 0.467374 0.951773 -0.13191 -0.276997
0.901193 0.445108 0.500626 0.236737 -0.971081 -0.0309402
0.223966 0.519881 0.524084 0.136915 0.374288 0.917149
0.0992381 0.529944 0.519248 -0.918178 0.223287 0.327249
0.306631 0.525817 0.478568 -0.0663803 0.638803 -0.766501
0.211957 0.430158 0.447119 0.31937 -0.00410118 -0.947621
0.0992365 0.573643 0.511283 -1 -2.43164e-05 -0.000337621
0.121246 0.680218 0.500258 0.0556215 0.957715 -0.282292
0.656916 0.506419 0.52997 0.00168499 0.27519 0.961388
0.157815 0.645887 0.478913 -0.00167922 0.437942 -0.899002
0.0992381 0.611402 0.525134 -0.932219 0.143508 0.332223
0.176298 0.667481 0.508958 -0.0020936 0.534021 0.845468
0.0992381 0.612059 0.515725 -1 -0 -0
0.130589 0.397622 0.447734 -0.00523279 -0.0309065 -0.999509
0.303826 0.44331 0.510075 -0.0232304 -0.923253 0.383489
0.587907 0.455449 0.475067 0.0194509 -0.522271 -0.852558
0.114406 0.401744 0.447609 0.00954749 -0.0259638 -0.999617
0.431811 0.448081 0.480945 -0.0481191 -0.740286 -0.670568
0.533439 0.440349 0.50346 -0.00379815 -0.984548 0.175074
0.697407 0.457282 0.474793 0.0186532 -0.544164 -0.838771
0.17242 0.649912 0.518866 0.000269744 0.454489 0.890752
0.456148 0.519311 0.472971 0.0108239 0.449172 -0.89338
0.521086 0.533956 0.511952 0.0121161 0.901584 0.432434
0.207432 0.504632 0.450051 0.198302 0.0656795 -0.977938
0.78429 0.530661 0.485183 -0.0358358 0.78568 -0.617594
0.183109 0.534933 0.546696 -0.00900223 0.124244 0.992211
0.88478 0.518898 0.522638 0.0262117 0.521032 0.853134
0.509315 0.536436 0.491343 -0.0433135 0.938227 -0.343299
0.205876 0.331211 0.547112 0.0999978 -0.255813 0.961541
0.63784 0.455568 0.523573 0.00656914 -0.577494 0.816369
0.785132 0.5333 0.489553 0.000673823 0.918 -0.396579
0.45449 0.47132 0.530515 0.00609245 -0.250047 0.968215
0.317327 0.442948 0.489142 -0.0495734 -0.934558 -0.352339
0.833425 0.443005 0.496388 0.120484 -0.983888 -0.132093
0.622332 0.461937 0.527004 0.0175555 -0.401915 0.915509
0.164805 0.513467 0.548919 -0.00290298 0.0784785 0.996912
0.507874 0.488823 0.46558 0.00208666 -0.0160613 -0.999869
0.2173 0.343583 0.481089 1 -6.24388e-05 7.7867e-05
0.181507 0.32014 0.517537 -0.00252222 -0.999903 0.013665
0.827775 0.516163 0.524663 -0.00193964 0.506611 0.862173
0.140306 0.424226 0.447152 -0.000103522 -0.00975991 -0.999952
0.122502 0.517035 0.451207 0.00853567 0.0940813 -0.995528
0.186734 0.529276 0.452429 -0.00434696 0.110806 -0.993833
0.691317 0.447372 0.482201 -0.0171805 -0.788956 -0.61421
0.441269 0.518966 0.473286 -0.00237798 0.472314 -0.881427
0.847097 0.516358 0.47456 0.0155509 0.46918 -0.882965
0.526118 0.507205 0.468593 -0.00111797 0.301522 -0.953458
0.783849 0.530653 0.513663 0.00765015 0.790979 0.611796
0.199928 0.320031 0.499894 0.102093 -0.993646 0.0473844
0.21353 0.623482 0.530073 0.683228 0.303938 0.663944
0.217246 0.524756 0.547866 0.714064 0.0308119 0.699402
0.792172 0.532702 0.488753 0.0124314 0.844446 -0.535497
0.546051 0.455816 0.524092 0.0149992 -0.533681 0.845553
0.620918 0.509087 0.469314 -0.00602617 0.296752 -0.954936
0.2173 0.508807 0.532753 0.896188 0.247893 0.367962
0.258651 0.506589 0.529457 0.0163268 0.25411 0.967038
0.212467 0.479909 0.448389 0.478696 0.00189837 -0.877978
0.168837 0.519611 0.451447 -0.00116899 0.0978253 -0.995203
0.217301 0.603662 0.477287 0.99887 -0.0113076 -0.0461547
0.914627 0.457254 0.506101 0.81443 -0.512399 0.272306
0.0884294 0.444583 0.505047 -0.447633 -0.857648 0.25311
0.407172 0.451126 0.477664 0.00138891 -0.590992 -0.806676
0.703297 0.513664 0.527409 -0.00539855 0.391412 0.9202
0.163412 0.495586 0.550378 -0.00667617 0.0739373 0.997241
0.0992381 0.561612 0.525699 -1 6.89973e-05 -0.000170038
0.591433 0.522387 0.475249 -0.00923115 0.563197 -0.826271
0.136108 0.469186 0.551874 -0.000247594 0.0437257 0.999044
0.168474 0.612278 0.533557 -0.00603146 0.276108 0.961108
0.529546 0.453734 0.475882 0.0162538 -0.596712 -0.80229
0.100606 0.356314 0.549547 -0.526901 -0.00886654 0.849881
0.766894 0.441918 0.49572 -0.03012 -0.983393 -0.178971
0.217374 0.342497 0.480415 1 -6.24388e-05 7.7867e-05
0.212797 0.458739 0.55274 0.398446 0.0936223 0.912401
0.08343 0.47264 0.487227 -1 -0 -0
0.257954 0.533578 0.510262 -0.0168684 0.905353 0.424326
0.158182 0.452442 0.447365 0.000399687 0.0273006 -0.999627
0.319016 0.44509 0.485587 0.023813 -0.853573 -0.520429
0.191655 0.641912 0.523336 0 0.420466 0.907309
0.722978 0.452232 0.520153 0.0137352 -0.621377 0.783391
0.491816 0.506662 0.468397 -0.00632483 0.240747 -0.970567
0.157712 0.341091 0.451647 -0.0091541 -0.110217 -0.993865
0.139483 0.432922 0.447105 0.00567692 -0.00321322 -0.999979
0.123003 0.407411 0.552785 -0.0084855 -0.024353 0.999667
0.867518 0.525732 0.517329 0.0656219 0.705138 0.706027
0.37121 0.488323 0.466085 -0.0102699 -0.0382247 -0.999216
0.754772 0.498971 0.530921 0.0129216 0.154525 0.987904
0.131427 0.574305 0.458511 0.00732526 0.151766 -0.988389
0.520237 0.501869 0.467078 -0.0290974 0.212598 -0.976706
0.128588 0.569461 0.457712 0.00420489 0.148819 -0.988856
0.154222 0.319943 0.484566 4.5176e-05 -0.999981 0.00615688
0.417516 0.467635 0.468919 -0.0118628 -0.301931 -0.953256
0.2173 0.420374 0.50063 0.999999 -0.000462313 0.00153097
0.194711 0.517391 0.548553 0.00872087 0.0845259 0.996383
0.40063 0.44001 0.497896 -0.00725931 -0.996442 -0.0839655
0.0834283 0.484925 0.500957 -1 -0.000921102 -8.89492e-05
0.457536 0.503322 0.53133 -0.014237 0.249578 0.96825
0.13334 0.608592 0.534596 0.0024436 0.254306 0.967121
0.176212 0.566165 0.54299 -0.00804429 0.143645 0.989597
0.514858 0.481617 0.466462 0.0214447 -0.0685709 -0.997416
0.168865 0.564859 0.542742 -0.00732253 0.143562 0.989614
0.287046 0.44387 0.510829 -0.047071 -0.885769 0.461733
0.488677 0.511597 0.469791 0.0136888 0.343857 -0.938922
0.27903 0.52535 0.478438 -0.0491524 0.60748 -0.792813
0.298104 0.536197 0.504064 0.0111792 0.954543 0.297862
0.258335 0.464605 0.471203 -0.0185688 -0.392218 -0.919685
0.620254 0.509908 0.469625 0.0131212 0.297061 -0.954768
0.174196 0.351107 0.450667 -0.00190317 -0.0807768 -0.99673
0.114851 0.356314 0.450247 -0.00654661 -0.0852748 -0.996336
0.0992381 0.470506 0.542932 -0.990302 0.00390246 0.13888
0.331958 0.525604 0.478142 -0.00529496 0.648363 -0.761313
0.21182 0.432983 0.55269 0.327987 -0.0206854 0.944456
0.0992023 0.357572 0.547689 -0.96409 -0.112213 0.240705
0.496055 0.524418 0.522437 -0.00270988 0.584589 0.811325
0.612601 0.456796 0.474468 0.0211596 -0.533352 -0.845628
0.784305 0.443979 0.509992 0.0136818 -0.865389 0.500914
0.682802 0.519014 0.524783 0.0426331 0.500939 0.864432
0.423961 0.467008 0.529258 -0.00266921 -0.328402 0.944534
0.650106 0.495485 0.531977 0.00936661 0.103007 0.994637
0.109758 0.417141 0.552601 -0.037805 -0.00562543 0.999269
0.0957094 0.490798 0.530208 -0.28851 0.0485392 0.956246
0.897896 0.525237 0.482004 0.222355 0.682423 -0.696317
0.217301 0.347624 0.52883 1 0 0
0.245606 0.458439 0.524264 0 -0.554382 0.832262
0.901207 0.498534 0.528477 0.269188 0.152711 0.950903
0.512461 0.532046 0.483695 -0.0268232 0.796103 -0.604567
0.238063 0.471131 0.469484 -0.0128682 -0.287615 -0.95766
0.783529 0.534851 0.504618 -0.000237832 0.972695 0.232087
0.546193 0.469801 0.530486 0.00477712 -0.306096 0.951989
0.783135 0.499902 0.468263 -0.0212256 0.154008 -0.987842
0.468834 0.481765 0.532376 0.00432131 -0.136226 0.990668
0.15748 0.676014 0.503252 -0.01667 0.926461 0.376022
0.173807 0.37469 0.550916 0.00857467 -0.0722553 0.997349
0.585939 0.451789 0.477822 -0 -0.645516 -0.763747
0.254605 0.492716 0.531719 -0.00232215 0.0580808 0.998309
0.409023 0.516207 0.471925 0.00999889 0.467495 -0.883939
0.215496 0.672421 0.494077 0.891134 0.399064 -0.215933
0.836539 0.496216 0.4685 0.030477 0.109208 -0.993552
0.119432 0.467693 0.447855 -0.00992112 0.0402984 -0.999138
0.821877 0.532934 0.508891 0.028446 0.92993 0.366635
0.640159 0.481596 0.531992 0.00940543 -0.121876 0.992501
0.563138 0.480286 0.466226 0.00201418 -0.173506 -0.984831
0.183369 0.410669 0.447338 0.00275396 -0.0218528 -0.999757
0.829359 0.488485 0.467492 0.0243289 -0.0103688 -0.99965
0.202309 0.346037 0.548663 0.00122096 -0.100561 0.99493
0.108005 0.523318 0.451793 -0.113502 0.0678564 -0.991218
0.161549 0.514807 0.548794 0.00143915 0.0803854 0.996763
0.2173 0.370761 0.530255 1 0 0
0.378456 0.498997 0.531881 0.0186411 0.1365 0.990465
0.0992381 0.67709 0.500047 -0.823557 0.567234 -0
0.475544 0.508938 0.469064 0.0166475 0.270223 -0.962654
0.829754 0.467477 0.527395 0 -0.323758 0.94614
0.08343 0.482251 0.494048 -1 -0 -0
0.114222 0.380241 0.448574 1.97432e-05 -0.0638296 -0.997961
0.300118 0.500255 0.532089 -0.0120647 0.185898 0.982495
0.134976 0.398322 0.447713 -0.00193008 -0.0323091 -0.999476
0.57575 0.519474 0.525165 -0.00576355 0.46496 0.885313
0.0992356 0.510539 0.536524 -0.97401 0.099116 0.203668
0.139354 0.421501 0.552627 0.00707715 -0.0177895 0.999817
0.337555 0.523588 0.476294 -0.00797382 0.600757 -0.799392
0.208745 0.649759 0.518937 0.25563 0.488627 0.834204
0.217379 0.587867 0.481822 1 -6.55638e-05 0.000282546
0.170087 0.421031 0.552624 0.0163462 -0.0066585 0.999844
0.743196 0.512758 0.471338 -0.00253587 0.453124 -0.891444
0.200865 0.450486 0.552465 0.000897009 0.0182367 0.999833
0.216611 0.490741 0.550715 0.782337 0.0191622 0.62256
0.55998 0.510213 0.529332 -0.00386077 0.290948 0.956731
0.342699 0.536578 0.504028 0.00538758 0.986519 0.163556
0.317327 0.46296 0.471562 -0.0292863 -0.387968 -0.921208
0.282726 0.477023 0.531245 0.00521727 -0.178722 0.983886
0.265993 0.446833 0.483626 -0.0161378 -0.79496 -0.606448
0.674031 0.4834 0.53188 0.026995 -0.050688 0.99835
0.737212 0.510319 0.528269 0.0190309 0.367769 0.929722
0.141215 0.569755 0.54204 -0.000756474 0.147293 0.989093
0.623583 0.536238 0.506354 -0.0266554 0.973788 0.225889
0.849311 0.473931 0.469884 0.0252874 -0.237384 -0.971087
0.172964 0.458776 0.55231 -0.00517159 0.0456079 0.998946
0.810189 0.522244 0.477274 0.0164439 0.582509 -0.812658
0.0992381 0.381909 0.49976 -1 -0 -0
0.756726 0.513416 0.471817 0.0022024 0.417174 -0.908824
0.255624 0.46518 0.471016 -0.0208584 -0.363427 -0.931389
0.4259 0.459502 0.47281 0.0323675 -0.439016 -0.897896
0.169427 0.418233 0.552608 0.0155632 -0.00737077 0.999852
0.0992381 0.391912 0.488123 -1 -0 -0
0.719947 0.48488 0.53177 0.00511951 -0.0435088 0.99904
0.676229 0.444301 0.48662 0.0410123 -0.859802 -0.508978
0.217301 0.675396 0.49663 0.904852 0.420949 -0.063595
0.888744 0.532572 0.507201 0.0283907 0.945073 0.325625
0.763293 0.453968 0.521162 0.0033289 -0.641902 0.766779
0.118992 0.432753 0.447106 -0.00398311 0.000653556 -0.999992
0.377253 0.470813 0.530166 0.0159266 -0.23713 0.971347
0.792778 0.454243 0.521196 0.0332173 -0.577497 0.815717
0.49373 0.441803 0.489686 0.0401351 -0.946609 -0.319877
0.217301 0.398226 0.449162 0.411053 0.0186956 -0.91142
0.198476 0.432028 0.446867 -0.00213842 -0.00821894 -0.999964
0.08343 0.479116 0.523147 -0.923577 -0.0907922 0.372508
0.831942 0.528852 0.483538 0.0234993 0.718596 -0.695031
0.10213 0.513934 0.548877 -0.343726 0.113656 0.932167
0.8897 0.483704 0.529917 0.0522575 -0.0682763 0.996297
0.2173 0.391649 0.498799 0.999998 -0.000570712 -0.00179129
0.190462 0.611664 0.466063 -0.00335239 0.27901 -0.960282
0.311574 0.49877 0.531495 -0.00272358 0.185763 0.982591
0.344159 0.529731 0.481696 -0.0321386 0.786031 -0.617351
0.2173 0.420168 0.473993 0.999995 -0.00267759 -0.00166863
0.330249 0.495533 0.531971 0.00864701 0.102335 0.994712
0.209657 0.329524 0.452435 0.236447 -0.263518 -0.935228
0.512759 0.478476 0.466236 -0.00933083 -0.129505 -0.991535
0.627827 0.525501 0.52096 0.0133119 0.594297 0.804135
0.164546 0.571561 0.541745 -0.00374098 0.15036 0.988624
0.2173 0.535548 0.469774 1 0 0
0.217301 0.576444 0.462721 0.788948 -0.219794 -0.573805
0.367554 0.496126 0.532101 0.00217923 0.0998653 0.994999
0.207595 0.474028 0.448132 0.295032 -0.0534651 -0.95399
0.462599 0.526086 0.477905 -0.00627634 0.617251 -0.786741
0.0992381 0.430271 0.455229 -0.994268 0.0303551 -0.102517
0.648862 0.461434 0.472262 -0.00608193 -0.438557 -0.898683
0.0957294 0.474343 0.528582 -0.417121 -0.172307 0.892368
0.51721 0.463864 0.470473 -0.00618305 -0.374915 -0.927039
0.793638 0.530848 0.485743 0.0228839 0.835285 -0.549341
0.558022 0.441694 0.508766 0.0478672 -0.912686 0.405848
0.877035 0.447557 0.512305 0.0375517 -0.805862 0.590911
0.135817 0.499019 0.44965 -0.0097943 0.0763776 -0.997031
0.384884 0.537234 0.496893 0.0146859 0.995043 -0.098356
0.868908 0.480662 0.468967 0.0528609 -0.121589 -0.991172
0.712874 0.51237 0.527896 0.0203954 0.363943 0.931198
0.628457 0.503439 0.467835 0.00103412 0.267571 -0.963537
0.328581 0.468534 0.469543 -0.0165365 -0.29279 -0.956034
0.901545 0.48648 0.529072 0.256004 -0.0281467 0.966266
0.410076 0.476076 0.467051 -0.00181756 -0.1939 -0.98102
0.0992381 0.476696 0.448634 -0.332473 0.0434737 -0.94211
0.132726 0.319962 0.497124 -0.00512336 -0.99998 0.00367626
0.418132 0.477554 0.466891 0.00275378 -0.166228 -0.986084
0.351614 0.537034 0.49677 0.0111325 0.982936 -0.183612
0.845794 0.475252 0.469463 0.0132627 -0.203978 -0.978886
0.0992381 0.425516 0.461604 -1 -0 -0
0.12872 0.506391 0.449889 -0.00131175 0.0851449 -0.996368
0.0992381 0.5994 0.528832 -0.951445 -0.00564902 0.307766
0.884989 0.462183 0.5242 0.027508 -0.471493 0.881441
0.642822 0.457115 0.47448 0.00724834 -0.530651 -0.84756
0.446491 0.517419 0.471995 -0.0143879 0.424185 -0.905461
0.217301 0.527596 0.469365 0.978116 0.145304 -0.148915
0.201264 0.388869 0.4481 -0.0065667 -0.0593397 -0.998216
0.38735 0.471658 0.530441 -0.0158472 -0.230173 0.973021
0.208785 0.675606 0.496249 -0.141088 0.989146 -0.041041
0.169747 0.593331 0.461758 -0.00241795 0.191689 -0.981453
0.153048 0.417603 0.552605 -0.004415 -0.0190355 0.999809
0.107901 0.593391 0.538023 -0.0897493 0.146737 0.985096
0.0992023 0.411629 0.504898 -1 -0 -0
0.217301 0.599812 0.497215 1 0 0
0.732898 0.484277 0.53161 0.000506681 -0.0699531 0.99755
0.128372 0.383962 0.448369 -0.00550343 -0.0511316 -0.998677
0.782038 0.47879 0.530676 0.00887644 -0.187611 0.982203
0.217436 0.538941 0.527846 1 0.000705634 -0.000302186
0.275204 0.512814 0.527839 -0.0233117 0.372744 0.927641
0.799329 0.51429 0.525981 -0.029953 0.408576 0.912233
0.271825 0.535754 0.493845 -0.0192852 0.970871 -0.238824
0.691367 0.473975 0.530571 0.00281483 -0.203932 0.978981
0.138676 0.499009 0.550576 -0.00333486 0.067155 0.997737
0.275044 0.44293 0.489875 0.0153714 -0.890552 -0.454622
0.706651 0.496894 0.46685 0.0177207 0.154789 -0.987789
0.402201 0.440061 0.497591 -0.0456331 -0.991306 -0.123412
0.771444 0.508535 0.470371 0.0150809 0.337358 -0.941256
0.904186 0.488507 0.528495 0.293863 -0.0214467 0.955607
0.482008 0.469248 0.529963 -0.010397 -0.288311 0.95748
0.49314 0.523933 0.522874 -0.00313092 0.586494 0.809947
0.658502 0.533095 0.512172 0.0145454 0.893069 0.449685
0.63818 0.440745 0.495842 -0.0238928 -0.99225 -0.121937
0.0992381 0.43695 0.46895 -1 -0 -0
0.532654 0.503918 0.467671 0.0232134 0.253883 -0.966956
0.240868 0.448427 0.516558 -0.00911571 -0.739161 0.673467
0.457769 0.48756 0.465431 -0.00261763 -0.00492166 -0.999984
0.420296 0.470343 0.530192 -0.0111228 -0.3023 0.953148
0.840478 0.515014 0.525068 0.00880104 0.414089 0.910194
0.107434 0.666492 0.490226 -0.343777 0.543889 -0.765508
0.495232 0.535359 0.489102 -0.0214124 0.923687 -0.382549
0.527673 0.445029 0.514351 0.00792424 -0.860714 0.509026
0.159173 0.457342 0.447458 -0.00374046 0.0384503 -0.999254
0.73375 0.485494 0.467108 -0.0106356 -0.0206647 -0.99973
0.739566 0.535862 0.502486 -0.0341096 0.996588 0.0751552
0.197786 0.597136 0.462523 -0.00313561 0.20325 -0.979122
0.099239 0.332962 0.523412 -0.973339 -0.226028 -0.0390125
0.0990256 0.491216 0.530212 -0.651463 -0.00656758 0.758652
0.124383 0.396268 0.552019 -0.0133091 -0.0501477 0.998653
0.49066 0.453669 0.523889 -0.0279864 -0.624517 0.780509
0.485277 0.5341 0.487027 -0.0367995 0.871284 -0.489397
0.111402 0.424676 0.44715 -0.119405 -0.0276323 -0.992461
0.265679 0.529829 0.482595 -0.0629735 0.760437 -0.646352
0.113141 0.454653 0.552386 0.00105432 0.0264354 0.99965
0.635547 0.513124 0.470616 0.0102649 0.340373 -0.940235
0.909753 0.500961 0.474266 0.736299 0.140406 -0.661929
0.188917 0.673812 0.494986 -0.014636 0.807215 -0.590076
0.217473 0.449072 0.518238 0.707157 -0.427505 0.563176
0.2173 0.549678 0.505274 1 0 0
0.844482 0.481178 0.46861 0.0235344 -0.12793 -0.991504
0.578832 0.47476 0.467451 0.0122754 -0.185948 -0.982483
0.820711 0.44564 0.487962 0.0509525 -0.89301 -0.447143
0.217274 0.649625 0.519005 0.642596 0.309942 0.700718
0.207981 0.538983 0.546218 0.0306901 0.12548 0.991621
0.16119 0.481625 0.448464 0.00126861 0.0550014 -0.998485
0.217301 0.388206 0.478375 1 0 0
0.777806 0.492427 0.467536 0.020901 0.0617345 -0.997874
0.498751 0.469516 0.530038 0.00529889 -0.256019 0.966657
0.271712 0.47511 0.46807 -0.0190983 -0.221506 -0.974972
0.251913 0.461192 0.525768 0 -0.440779 0.897616
0.340101 0.535804 0.507932 -0.0363414 0.945609 0.323268
0.193544 0.61035 0.5341 0.00143168 0.273307 0.961926
0.723649 0.46392 0.52724 0 -0.418057 0.908421
0.246617 0.447539 0.515843 0.0534901 -0.734618 0.676369
0.61981 0.524638 0.47704 0.00426549 0.579951 -0.81464
0.9102 0.450428 0.497676 0.627912 -0.76572 -0.139282
0.08343 0.490462 0.469549 -0.858245 0.0477312 -0.511016
0.752793 0.506543 0.529199 0.0337755 0.254961 0.966361
0.47513 0.440526 0.504622 0.0141166 -0.969907 0.243067
0.165549 0.46325 0.552133 0.00115545 0.0311485 0.999514
0.553701 0.483175 0.533195 -0.00393385 -0.0718971 0.997404
0.136354 0.36844 0.44928 -0.010192 -0.075016 -0.99713
0.35683 0.452681 0.521585 0.00751087 -0.588843 0.808213
0.768562 0.459408 0.524406 0.0330556 -0.471157 0.88143
0.119951 0.487878 0.550906 0.01406 0.0682008 0.997573
0.180263 0.567255 0.542398 -0.00688699 0.1501 0.988647
0.0992381 0.371444 0.481822 -0.999999 0.000343705 0.00153403
0.235946 0.442501 0.506597 0.0429006 -0.939512 0.339819
0.832704 0.503396 0.469605 0.0136258 0.212205 -0.97713
0.170848 0.427566 0.55266 0.012915 -0.016707 0.999777
0.0992381 0.572927 0.484655 -1 0.000247627 0.000267779
0.2173 0.424797 0.48655 0.999997 0.00237777 -0.000188981
0.501171 0.459361 0.472807 -0.000859571 -0.470684 -0.882302
0.644847 0.466451 0.470092 0.0151571 -0.361152 -0.932384
0.693672 0.489048 0.46652 0.00505796 0.0157362 -0.999863
0.62587 0.518839 0.525282 0 0.492591 0.870261
0.524638 0.508801 0.530436 0 0.274911 0.96147
0.211583 0.417195 0.446686 0.201237 -0.103742 -0.974034
0.916665 0.475058 0.491112 0.998422 -0.0363672 -0.0427983
0.420799 0.495263 0.532658 -0.0153999 0.0637525 0.997847
0.682719 0.497919 0.531569 0.0218967 0.161934 0.986559
0.74747 0.50413 0.529928 -0.00686561 0.216428 0.976274
0.34317 0.441322 0.492788 0.0604706 -0.967792 -0.244379
0.215597 0.324925 0.520958 0.819095 -0.560605 0.121678
0.162318 0.355497 0.549482 -0.00257628 -0.0808557 0.996722
0.0992381 0.50552 0.453573 -0.95737 0.0836154 -0.276498
0.250281 0.502886 0.530432 -0.0132378 0.191946 0.981316
0.656079 0.44794 0.517179 -0.0234079 -0.76685 0.6414
0.749222 0.464878 0.471336 0.0101101 -0.393584 -0.919233
0.221687 0.513423 0.526984 0.485118 0.375992 0.789488
0.258318 0.528842 0.517008 -0.0486565 0.749413 0.660312
0.721136 0.531003 0.484316 0.0132379 0.823081 -0.56777
0.160533 0.468935 0.551885 0.00387952 0.0358648 0.999349
0.361566 0.475352 0.531391 0.00228461 -0.189101 0.981955
0.339319 0.537323 0.498798 0.0131531 0.999913 0.000642494
0.753012 0.525994 0.479086 0.00996448 0.671911 -0.740565
0.471253 0.49062 0.533544 0.0210448 0.0181709 0.999613
0.437073 0.50027 0.46638 -0.00610723 0.17004 -0.985418
0.175207 0.402362 0.44759 -0.00596162 -0.018409 -0.999813
0.873621 0.445945 0.509485 0.0332179 -0.920376 0.38962
0.850584 0.510493 0.526969 0.015146 0.314594 0.949105
0.217301 0.505538 0.450324 0.924875 -0.00703557 -0.380206
0.719711 0.444135 0.510634 -0.0169527 -0.855249 0.51794
0.796102 0.496923 0.530693 0.0323251 0.107067 0.993726
0.266252 0.533979 0.489048 0.0168648 0.92405 -0.3819
0.119674 0.367547 0.550447 0.000260038 -0.0734868 0.997296
0.228748 0.450564 0.518307 0.0236068 -0.673732 0.738598
0.255849 0.470648 0.469468 -0.00385876 -0.274046 -0.961709
0.105934 0.572306 0.541619 -0.366877 0.0649647 0.927998
0.81748 0.509692 0.471206 0.00380164 0.321629 -0.946858
0.217301 0.481198 0.540878 0.989176 -0.00355111 0.146688
0.64942 0.466831 0.528809 -0.00825523 -0.342263 0.939568
0.681795 0.493098 0.532007 -0.0121335 0.0408621 0.999091
0.826518 0.497287 0.530347 0.0128095 0.110895 0.99375
0.807462 0.523478 0.478336 -0.00571957 0.609329 -0.792897
0.268457 0.479071 0.531315 -0.0151384 -0.140764 0.989927
0.0988298 0.528852 0.4851 -0.689681 0.63356 -0.35063
0.769599 0.514481 0.472529 0.0191914 0.412309 -0.910842
0.293191 0.519486 0.52481 -0.0147311 0.484422 0.87471
0.827161 0.443056 0.50327 0.00813628 -0.993203 0.116107
0.535016 0.517421 0.52635 0.00887494 0.414017 0.910226
0.835916 0.442606 0.498691 0.0444406 -0.997864 0.0478704
0.660565 0.449887 0.51876 0.00341847 -0.688593 0.72514
0.755185 0.44749 0.483397 -0.0369537 -0.784853 -0.61858
0.664067 0.445594 0.51402 -0.0189133 -0.809442 0.586896
0.785605 0.479388 0.468129 0.0261994 -0.161811 -0.986474
0.286496 0.445922 0.51412 -0.0749483 -0.858697 0.506974
0.197889 0.3202 0.528383 0.0100189 -0.993285 0.11526
0.426527 0.453729 0.522891 -0.00439062 -0.528242 0.849082
0.841024 0.467576 0.528022 0.0211814 -0.33364 0.942462
0.310746 0.484076 0.466774 -0.0118751 -0.0691574 -0.997535
0.163732 0.615396 0.467115 0.00532847 0.301621 -0.953413
0.0992381 0.461422 0.527193 -0.930177 -0.113549 0.349108
0.651136 0.531766 0.51447 -0.0219996 0.83839 0.544627
0.217301 0.52249 0.455504 0.897382 0.164175 -0.409575
0.281993 0.495383 0.531698 -0.00605341 0.0734216 0.997283
0.761068 0.508992 0.470385 0.0176194 0.274049 -0.961554
0.519112 0.505647 0.530678 -0.0257856 0.250497 0.967774
0.101628 0.501252 0.549991 -0.709032 -0.0157393 0.705001
0.16204 0.506286 0.549589 0.00195115 0.0759699 0.997108
0.134514 0.565215 0.54269 0.00017341 0.150546 0.988603
0.291414 0.444866 0.486366 -0.00508515 -0.829601 -0.558334
0.453295 0.501564 0.531823 -0.0386475 0.216539 0.975509
0.79951 0.514679 0.473034 0.00715512 0.431328 -0.902167
0.797359 0.53546 0.498398 -0.0127787 0.995124 -0.0977975
0.910236 0.47985 0.473851 0.603381 -0.12536 -0.787538
0.240125 0.532643 0.48739 0.0120386 0.800728 -0.598907
0.826084 0.442865 0.496458 -0.0369684 -0.992298 -0.118229
0.2173 0.464312 0.467319 0.835055 -0.0188873 -0.549843
0.810225 0.519421 0.475639 0.0321832 0.509229 -0.860029
0.179101 0.320008 0.516258 -0.00248169 -0.999933 0.0112815
0.520435 0.481224 0.466505 0.0139632 -0.114408 -0.993336
0.789532 0.448511 0.4825 -0.00983919 -0.788891 -0.614454
0.914853 0.520557 0.494513 0.877031 0.464554 -0.122498
0.217465 0.379118 0.549043 0.794071 -0.0293713 0.607115
0.0992381 0.357298 0.457092 -0.880134 -0.0251039 -0.474061
0.120049 0.639728 0.476106 0.00702333 0.40176 -0.915718
0.432495 0.526985 0.520059 -0.0332678 0.663692 0.747266
0.28217 0.489156 0.466563 -0.00342803 -0.0034922 -0.999988
0.2173 0.446193 0.475752 0.850463 -0.331091 -0.408769
0.64932 0.483372 0.466723 0.0048994 -0.0696247 -0.997561
0.115941 0.478345 0.44832 -0.00114579 0.0484947 -0.998823
0.112565 0.622866 0.530274 -0.00501721 0.326373 0.945228
0.217378 0.530377 0.526937 0.984861 0.173344 0
0.647141 0.525912 0.478408 -0.0218068 0.653617 -0.756511
0.177266 0.340878 0.45167 -0.00125555 -0.104003 -0.994576
0.631328 0.481287 0.466808 0.0119974 -0.0936201 -0.995536
0.0992381 0.635412 0.519778 -0.819036 0.113144 0.562475
0.398134 0.536216 0.507554 0.0028489 0.929176 0.369627
0.640144 0.53328 0.486683 -0.0381265 0.869936 -0.491688
0.109059 0.371217 0.550724 -0.0780478 -0.114134 0.990395
0.856752 0.513421 0.525646 0.0143478 0.427148 0.904068
0.10815 0.31932 0.479638 -0.189703 -0.98184 -0.00190712
0.515761 0.493262 0.466226 0.0263106 0.0270166 -0.999289
0.820335 0.475073 0.46919 0.0175506 -0.196582 -0.98033
0.192144 0.633958 0.526109 0 0.375302 0.926903
0.205563 0.606976 0.535017 0.059032 0.25035 0.966354
0.474051 0.535135 0.510057 0.0042024 0.920762 0.390102
0.507722 0.497601 0.532215 0.000695206 0.138875 0.99031
0.584864 0.530893 0.516416 -0.00427483 0.803526 0.595254
0.148032 0.410918 0.552446 0.00988579 -0.0150394 0.999838
0.828553 0.530023 0.485313 0.022884 0.83337 -0.552241
0.871444 0.444438 0.492602 0.0326847 -0.924398 -0.380025
0.194162 0.369159 0.550571 0.0033292 -0.0630252 0.998006
0.105197 0.374149 0.550885 -0.381931 0.00178193 0.924189
0.493332 0.505129 0.467957 -0.00241436 0.226472 -0.974015
0.143479 0.441074 0.446911 -0.00655252 0.0136596 -0.999885
0.0992381 0.624391 0.516619 -0.973666 0.051632 0.222057
0.215609 0.357135 0.550355 0.673619 -0.0938149 0.7331
0.565465 0.53486 0.510287 -0.0319375 0.92422 0.380521
0.575122 0.461916 0.471629 -0 -0.407541 -0.913187
0.209744 0.446238 0.552547 0.0834498 -0.0422756 0.995615
0.0992381 0.412331 0.489547 -1 0.000127621 -0.000455937
0.244891 0.532996 0.487871 0.030846 0.825942 -0.56291
0.624924 0.442401 0.509335 0.00240036 -0.901964 0.431804
0.2173 0.515078 0.467169 0.924287 0.0789261 -0.373448
0.08343 0.475607 0.507237 -1 -0 -0
0.14394 0.52935 0.54765 0.0125523 0.0981891 0.995089
0.754312 0.477542 0.4677 -0.0242232 -0.200014 -0.979494
0.115545 0.600843 0.463297 0.00548333 0.228729 -0.973475
0.561608 0.532462 0.514272 0.0333314 0.80678 0.589911
0.660828 0.495518 0.466911 0.0182268 0.101798 -0.994638
0.567452 0.536944 0.50417 -0.0298101 0.98744 0.155155
0.171275 0.678084 0.497514 -0.0972687 0.838579 -0.536026
0.217301 0.360221 0.487132 0.999999 -0.000786538 0.000897553
0.13086 0.550363 0.454986 0.0197585 0.126046 -0.991828
0.217318 0.428768 0.468743 0.999995 0.00121525 -0.00279906
0.177013 0.435855 0.552719 0.0109656 -0.0103617 0.999886
0.144615 0.634115 0.473751 0.00660405 0.369786 -0.929094
0.103102 0.548891 0.545463 -0.714871 -0.0588496 0.696775
0.217303 0.374756 0.467559 0.999997 -0.00164813 0.0018725
0.374961 0.484348 0.532393 -0.0220926 -0.096393 0.995098
0.270756 0.535753 0.493923 -0.01344 0.96688 -0.254877
0.495274 0.514873 0.527742 -0.0254424 0.403532 0.914612
0.217301 0.534173 0.472062 1 -8.90065e-05 -0.000219187
0.2173 0.407383 0.542101 0.94149 -0.0859328 0.325901
0.170185 0.321741 0.456925 0.00502605 -0.810788 -0.585319
0.732688 0.518062 0.524811 0.0155217 0.425174 0.904979
0.0992381 0.441917 0.549235 -0.994071 0.00646836 0.108538
0.168064 0.409492 0.447375 0.00849494 -0.0273616 -0.99959
0.2173 0.544673 0.45847 0.891538 -0.107501 -0.440005
0.833811 0.498239 0.530175 0.0256316 0.144664 0.989149
0.172589 0.486128 0.551026 -0.00112272 0.0577396 0.998331
0.736794 0.514655 0.526555 0.0196992 0.398965 0.916755
0.201256 0.38565 0.448276 -0.00310599 -0.0618818 -0.998079
0.310813 0.503093 0.530834 -0.0072443 0.222824 0.974832
0.190158 0.347963 0.548864 0.00265073 -0.099967 0.994987
0.0992381 0.58438 0.500554 -1 -0 -0
0.138808 0.657346 0.514922 0 0.487744 0.872987
0.82216 0.466335 0.471207 0.0316812 -0.361631 -0.931783
0.132574 0.603709 0.463992 -0.00630935 0.23203 -0.972688
0.902707 0.445713 0.500715 0.26123 -0.96272 -0.0702098
0.0992356 0.340469 0.478887 -0.999238 -0.0357047 0.0157844
0.556396 0.49927 0.466813 -0.0133482 0.186372 -0.982389
0.331616 0.440337 0.500426 0.0441884 -0.996235 0.0745865
0.2173 0.544647 0.544898 0.745751 0.0397575 0.665037
0.816303 0.498216 0.530369 -0.0111765 0.0997556 0.994949
0.661906 0.529903 0.516726 -0.00762378 0.734106 0.678992
0.217376 0.390691 0.511272 1 -0.000530684 -0.000627031
0.868417 0.496501 0.529896 -0.0328063 0.0963389 0.994808
0.509271 0.489489 0.465881 0.00888182 -0.00732789 -0.999934
0.504725 0.510724 0.469561 0.0155763 0.279883 -0.959908
0.0992381 0.3309 0.530917 -0.965645 -0.257766 -0.0329604
0.152156 0.659522 0.485551 -0.00303095 0.494576 -0.869129
0.678616 0.512136 0.528221 0.0203579 0.38588 0.922324
0.566134 0.510737 0.529161 0.0168715 0.32023 0.94719
0.628552 0.496352 0.53202 0.0207553 0.132424 0.990976
0.916665 0.477995 0.496531 0.999921 -0.00858185 -0.00916179
0.760509 0.465964 0.527718 0.0296112 -0.391573 0.919671
0.360596 0.445992 0.515301 -0.0363437 -0.801159 0.597347
0.169318 0.574782 0.458086 -0.000835513 0.158775 -0.987315
0.862252 0.53447 0.498932 0.0775264 0.996479 -0.031933
0.330465 0.484324 0.532183 -0.0171183 -0.0673051 0.997586
0.10618 0.598249 0.537046 -0.200499 0.204071 0.958204
0.122341 0.603642 0.535834 0.0053338 0.237039 0.971486
0.367802 0.453121 0.476277 -0.00612174 -0.571044 -0.820897
0.826901 0.492793 0.530747 0.0186948 0.0400119 0.999024
0.17804 0.551962 0.455204 -0.00123963 0.128017 -0.991771
0.903434 0.472685 0.526344 0.373888 -0.268995 0.887609
0.293494 0.52852 0.517728 -0.00187627 0.709651 0.704551
0.444347 0.453031 0.522304 -0.0299126 -0.593531 0.804255
0.188243 0.476077 0.551572 -4.3198e-05 0.0486472 0.998816
0.187858 0.68006 0.499423 -0.0903266 0.987573 0.128608
0.113471 0.653272 0.48262 0.00240107 0.470131 -0.882593
0.217301 0.348698 0.509967 0.999999 -0.000487716 0.00123194
0.117334 0.524143 0.45187 0.0195291 0.107068 -0.99406
0.217301 0.353318 0.494038 0.999999 0.00126288 -0.00116886
0.217432 0.510107 0.467438 0.977751 0.0469785 -0.20444
0.102855 0.382188 0.551326 -0.478439 0.00322947 0.878115
0.200212 0.519896 0.450967 0.00333587 0.099172 -0.995065
0.451429 0.504739 0.467899 0.0088059 0.204725 -0.97878
0.744376 0.487822 0.466983 0.00069802 0.00135883 -0.999999
0.142527 0.385306 0.551498 0.00934889 -0.0465763 0.998871
0.652172 0.498568 0.531684 -0.00825827 0.188279 0.982081
0.6578 0.501935 0.46759 0.0170385 0.171612 -0.985017
0.209213 0.387203 0.448191 0.153901 -0.0209001 -0.987865
0.273334 0.469398 0.469669 -0.00449872 -0.265814 -0.964014
0.114099 0.527203 0.452183 0.0125755 0.117726 -0.992966
