0.506306 0.671247 0.338814 -0.115642 0.13837 0.983606
0.0842493 0.272277 0.406547 0.901536 0.361199 0.238262
0.290157 0.352691 0.246361 0.799386 -0.537302 -0.268867
0.284725 0.521759 0.47156 0.916971 -0.391254 0.0780015
0.570241 0.6483 0.60449 -0.570604 0.601897 -0.558687
0.276599 0.328766 0.542866 -0.463444 0.886051 0.0115078
0.44921 0.712733 0.352385 0.260314 -0.125888 0.957282
0.829337 0.545354 0.333358 0.469546 0.570662 -0.6737
0.387538 0.563758 0.544092 -0.00573633 -0.348285 0.937371
0.472439 0.528536 0.548228 0.317911 0.933019 -0.168547
0.576985 0.775003 0.388774 -0.447273 -0.545097 0.709095
0.395498 0.588143 0.549985 -0.584366 -0.217081 0.781916
0.400486 0.450846 0.487363 -0.605027 0.794401 -0.0535651
0.412509 0.793658 0.542734 -0.617814 0.696767 0.364447
0.344501 0.170267 0.191662 0.41989 0.905133 0.0665293
0.653488 0.621976 0.867482 0.270021 0.585238 0.764582
0.441424 0.622939 0.801444 0.879431 0.221932 -0.421126
0.109772 0.271291 0.473201 0.774336 -0.356876 -0.522536
0.341328 0.617801 0.49971 0.828325 -0.148471 -0.540216
0.479026 0.429177 0.295707 0.996431 -0.0755167 0.037715
0.348082 0.215495 0.174683 0.894639 0.145181 0.422544
0.586814 0.802105 0.42537 0.65382 0.555801 -0.513424
0.671998 0.61613 0.511035 0.454905 0.547089 0.702677
0.251639 0.385651 0.56233 0.727971 0.0351125 -0.684708
0.130964 0.237046 0.430236 0.563859 0.798014 0.212691
0.779991 0.740864 0.525362 0.120295 0.980368 -0.156229
0.298654 0.385461 0.482949 -0.399507 0.506868 0.763858
0.143177 0.289058 0.493716 -0.478697 -0.360515 0.800549
0.462552 0.470431 0.46933 -0.500376 0.833367 -0.234785
0.7307 0.691636 0.51992 -0.659976 0.744207 -0.102901
0.766577 0.655056 0.306666 0.141569 0.977632 -0.155543
0.342627 0.318727 0.295662 -0.0950928 -0.335673 0.937167
0.359645 0.40401 0.321675 0.550142 0.633653 -0.5439
0.591938 0.768502 0.397955 0.612311 0.551624 -0.56638
0.445897 0.587991 0.665895 0.355218 0.92204 0.153829
0.258547 0.325234 0.470929 0.888415 -0.334659 -0.314201
0.387506 0.602339 0.549278 0.640964 0.29763 -0.707518
0.697205 0.714162 0.673945 0.308413 0.781448 -0.54242
0.658717 0.69507 0.46831 0.864798 0.254517 -0.432833
0.507142 0.598723 0.841416 -0.306461 -0.57993 0.754827
0.741295 0.68196 0.543927 -0.327772 0.51569 0.791599
0.200166 0.552519 0.329713 0.245728 0.960809 -0.128314
0.475923 0.834126 0.453675 -0.352679 0.855066 -0.380104
0.184693 0.527794 0.33868 0.645781 0.759814 -0.0751629
0.733052 0.534492 0.577964 0.947504 0.269488 -0.172082
0.782094 0.543212 0.325022 -0.196136 0.952314 -0.233728
0.490187 0.666233 0.729911 0.261481 0.851589 -0.454339
0.451862 0.569179 0.582074 -0.476322 -0.578837 0.661865
0.346745 0.532739 0.344396 0.778738 -0.361869 0.512463
0.387059 0.371973 0.297917 -0.27145 -0.558313 0.783965
0.174563 0.307419 0.419113 -0.338669 0.140134 0.930412
0.493268 0.505107 0.50772 -0.257188 0.866822 -0.42717
0.867613 0.586936 0.364183 -0.280142 -0.197526 0.939417
0.329435 0.567938 0.507603 0.702773 -0.497524 -0.508508
0.458438 0.729228 0.626411 -0.325761 0.432365 0.840797
0.71984 0.569439 0.283989 0.31968 0.633508 0.704608
0.586893 0.795824 0.42019 0.722832 0.52967 -0.443806
0.63109 0.591237 0.520516 -0.0600018 0.663138 0.746088
0.39176 0.683966 0.383537 0.796551 0.0598751 0.6016
0.382781 0.768316 0.519605 0.843175 -0.509122 -0.172772
0.243543 0.501793 0.385292 -0.401186 -0.586953 0.703232
0.593732 0.67842 0.816936 -0.331811 -0.0958696 0.938462
0.175791 0.308877 0.51783 -0.417225 -0.422038 0.804865
0.74586 0.677109 0.552406 -0.235883 0.790346 0.565431
0.780619 0.65153 0.283947 0.208071 0.872474 -0.442148
0.361083 0.651828 0.547681 0.839064 -0.153594 -0.521901
0.12317 0.338478 0.46495 0.825076 -0.533534 -0.185987
0.591923 0.564889 0.412166 0.510826 -0.610531 -0.605234
0.339319 0.222558 0.120668 0.38841 0.701739 -0.597243
0.784719 0.599698 0.262412 -0.410862 0.187964 0.892111
0.720832 0.605558 0.265849 0.647583 0.0107799 0.761919
0.599636 0.563269 0.479559 0.762646 -0.455284 0.459442
0.601208 0.587756 0.549868 0.605873 0.749804 -0.265917
0.647367 0.70323 0.424845 0.909169 -0.369101 -0.192812
0.755772 0.704787 0.534064 -0.383319 0.81848 0.427968
0.454108 0.532971 0.538922 0.183709 0.831871 -0.523681
0.37029 0.197331 0.159055 0.866664 0.395668 0.303874
0.330685 0.38298 0.199701 0.286026 -0.615058 0.734774
0.44575 0.492291 0.499372 0.239734 -0.63424 0.735029
0.214915 0.291582 0.458092 -0.503494 0.814135 0.289273
0.588197 0.685007 0.816581 -0.0978081 -0.42985 0.897587
0.416016 0.488736 0.247847 -0.0896017 -0.463165 0.881731
0.565253 0.627677 0.603545 0.658643 -0.361782 0.659775
0.311523 0.450999 0.451555 0.161164 0.295157 0.941758
0.351988 0.618369 0.394213 0.74071 -0.506001 0.441941
0.583108 0.675214 0.322665 0.44349 -0.565671 0.695221
0.88823 0.56878 0.331612 0.858315 0.0334636 -0.512031
0.324679 0.209254 0.217456 0.148991 0.0436383 0.987875
0.330719 0.518438 0.370122 0.638632 0.483362 0.598757
0.31947 0.555129 0.386829 -0.438899 0.718112 -0.540077
0.351524 0.46156 0.571299 0.607713 0.00383409 0.794148
0.159566 0.367527 0.509335 0.779474 -0.39904 -0.482895
0.583237 0.592884 0.385169 -0.111777 0.812277 0.572462
0.58763 0.697216 0.614956 0.0280298 0.402803 0.914857
0.721982 0.685761 0.530281 0.733135 -0.670268 -0.115129
0.543498 0.552278 0.569344 -0.611357 0.63129 -0.477195
0.409972 0.676127 0.613574 0.937291 -0.34852 0.00434957
0.736153 0.721321 0.555812 -0.160066 0.630988 0.7591
0.615827 0.573113 0.446914 0.873998 -0.483224 0.0512007
0.11171 0.257852 0.482485 0.73976 -0.392082 -0.546834
0.563628 0.681139 0.853385 -0.317465 0.625064 0.7131
0.705485 0.577922 0.544675 0.845804 0.404648 -0.347673
0.90993 0.534837 0.37164 0.928972 0.358074 0.093772
0.350644 0.666878 0.491115 0.991033 0.112074 0.0727497
0.483819 0.667301 0.727938 0.382027 0.86629 -0.321866
0.380408 0.162685 0.136821 -0.47777 0.18292 0.85923
0.455508 0.724816 0.352579 0.181401 -0.167426 0.969052
0.464062 0.538714 0.354118 0.848432 0.161897 -0.503937
0.118143 0.256084 0.494694 0.651237 -0.57287 -0.497704
0.797461 0.647597 0.30264 0.432452 0.889134 -0.149754
0.556414 0.595941 0.812572 0.975059 0.00917247 -0.221754
0.496196 0.675299 0.338705 0.0451018 0.0393595 0.998207
0.182565 0.221139 0.494101 0.685113 0.295706 0.665717
0.861657 0.622644 0.320401 -0.380828 -0.578559 0.721277
0.756293 0.59579 0.257385 0.124029 0.382734 0.915495
0.359459 0.334805 0.2985 0.125081 -0.0766291 0.989183
0.658883 0.556973 0.614572 0.656625 0.416628 -0.628701
0.430172 0.48796 0.251126 -0.243392 -0.426235 0.871254
0.619233 0.628194 0.608523 0.818719 0.457479 -0.347005
0.404715 0.659905 0.597283 0.964727 0.0564105 -0.257136
0.293728 0.532678 0.455018 0.843069 -0.454201 0.287985
0.593223 0.665243 0.817772 -0.457933 0.36094 0.812416
0.641517 0.657601 0.870457 0.267821 -0.439495 0.857389
0.500208 0.625745 0.699 0.944403 -0.323437 -0.0590831
0.225489 0.34728 0.435139 -0.346075 -0.267107 0.899381
0.323551 0.31042 0.28808 -0.31596 -0.413513 0.853918
0.605252 0.574986 0.479716 0.789028 -0.247985 0.562084
0.647476 0.669945 0.39288 0.820351 0.470643 0.324837
0.537764 0.803481 0.591138 0.116583 0.687052 0.717194
0.755248 0.556129 0.336407 -0.0093213 -0.389444 0.921003
0.554419 0.648106 0.781267 0.841786 -0.454875 -0.290662
0.509493 0.534075 0.415074 -0.43363 0.721699 0.53955
0.437725 0.464704 0.242202 -0.375138 -0.374992 0.847734
0.135405 0.281832 0.48657 -0.456184 -0.115347 0.882378
0.215576 0.243161 0.213842 0.649585 0.755983 0.0807985
0.869889 0.575198 0.307524 -0.634867 -0.221311 0.740247
0.463033 0.370348 0.260046 0.890943 -0.287925 0.351169
0.319038 0.413088 0.585937 0.371044 -0.148292 0.916698
0.429489 0.792249 0.41894 0.558515 -0.667307 0.492709
0.231952 0.417108 0.502456 0.841039 -0.515211 0.16496
0.379178 0.444356 0.458757 -0.172114 0.949235 0.263305
0.768691 0.726591 0.552262 0.141263 0.455274 0.879074
0.389454 0.352079 0.197848 -0.195659 0.0331046 0.980113
0.659108 0.613257 0.290842 -0.284278 0.237211 0.928933
0.310375 0.266261 0.166437 0.421149 0.662794 -0.619143
0.616085 0.59815 0.400973 -0.635503 0.769717 -0.0606036
0.593434 0.735361 0.369999 -0.556878 -0.327903 0.763129
0.524854 0.761619 0.613374 0.154485 0.242326 0.957816
0.478672 0.769445 0.366934 0.158207 -0.614185 0.773141
0.453064 0.356952 0.230665 0.651905 -0.433748 -0.621999
0.344974 0.498002 0.308741 0.901721 -0.355828 0.245529
0.718428 0.680741 0.534154 0.860078 -0.160816 -0.484154
0.402613 0.644094 0.365189 0.193863 -0.452275 0.870554
0.264175 0.320963 0.223727 0.838505 -0.538484 -0.0833375
0.452792 0.637153 0.821481 0.862432 -0.0680287 -0.50158
0.57486 0.817123 0.442713 0.373895 0.80505 -0.460541
0.492794 0.806414 0.590067 0.00458522 0.700574 0.713565
0.628997 0.609828 0.438744 0.718265 -0.651754 0.243541
0.689948 0.520241 0.578128 0.371661 0.895832 0.243624
0.409889 0.720666 0.380269 0.674459 -0.329277 0.660818
0.416263 0.77618 0.572929 0.62561 -0.533292 -0.569396
0.708728 0.684431 0.521127 0.105352 0.0953125 0.989857
0.263717 0.219035 0.201391 0.506108 0.785103 0.357028
0.381437 0.426482 0.355154 0.304428 0.711241 -0.633609
0.449868 0.450676 0.373725 0.659613 -0.601873 0.450176
0.533947 0.783871 0.385027 -0.167679 -0.673681 0.719748
0.645855 0.644571 0.293795 0.424862 -0.403265 0.810475
0.36038 0.177818 0.137666 0.238134 0.162111 0.957608
0.819417 0.605228 0.356541 -0.0196517 -0.149455 0.988573
0.561018 0.840187 0.506053 0.301448 0.9533 0.0186524
0.208927 0.510278 0.344817 0.424392 0.873994 0.236697
0.279966 0.240155 0.232979 0.0726723 -0.422075 0.903643
0.336501 0.343613 0.180757 -0.0705547 -0.210932 0.974951
0.63149 0.589169 0.596807 0.720668 0.250501 -0.646442
0.125462 0.301302 0.480756 0.861321 0.0840377 -0.501063
0.872594 0.552972 0.352474 -0.122426 -0.322225 0.938714
0.542422 0.733377 0.621913 0.214131 0.607969 0.76454
0.708403 0.690847 0.650332 0.940014 -0.327913 -0.0940577
0.31263 0.246547 0.139723 0.0121411 0.866678 -0.498721
0.401196 0.486443 0.245804 0.130229 -0.420756 0.897778
0.312727 0.510284 0.564542 -0.0366186 0.740079 0.671522
0.506237 0.637929 0.689954 0.970633 -0.0321409 0.238407
0.468573 0.623142 0.8338 -0.529437 -0.392166 0.752265
0.553508 0.605526 0.872666 0.594777 0.580906 -0.555687
0.35162 0.464466 0.274703 0.826613 -0.144625 0.543869
0.21955 0.239653 0.218335 0.626354 0.779537 0.00157972
0.709581 0.51486 0.601252 0.0774079 0.996704 0.0242772
0.759037 0.680262 0.551044 -0.32245 0.831652 0.452085
0.34937 0.194038 0.171352 0.708975 -0.196189 0.677395
0.373987 0.690468 0.426437 0.846407 -0.410209 0.339595
0.565743 0.707042 0.623346 0.416702 -0.490223 0.765533
0.520412 0.604891 0.751903 0.947172 -0.167207 -0.273693
0.611258 0.740136 0.613712 0.313556 0.0912559 0.945175
0.365082 0.561705 0.346859 0.521873 -0.579135 0.6263
0.117951 0.319435 0.451883 0.982853 -0.184311 0.00537229
0.506723 0.658557 0.665193 0.886069 0.298855 0.354354
0.448946 0.517082 0.287947 0.70546 0.648239 -0.286553
0.388856 0.767339 0.453366 0.713705 -0.616889 0.331772
0.477126 0.515517 0.384422 0.912243 -0.23701 -0.334125
0.489097 0.566665 0.761691 0.138325 0.988252 0.0649978
0.522414 0.752321 0.352467 0.0207582 -0.576988 0.816489
0.263824 0.280872 0.176463 -0.194323 0.687675 -0.699529
0.283344 0.446194 0.459886 0.295811 0.0484377 0.954018
0.258665 0.341244 0.461608 0.873632 0.00176279 -0.486584
0.318206 0.477044 0.432641 0.512857 0.559818 0.650831
0.553781 0.533955 0.48922 -0.0213304 0.828705 -0.559278
0.356312 0.17687 0.158272 0.227109 0.829994 -0.509441
0.151653 0.206778 0.524572 -0.330027 0.511678 0.793264
0.6602 0.768793 0.513025 0.792467 0.473479 -0.384466
0.74694 0.695377 0.54136 -0.21018 0.51518 0.830911
0.367803 0.427515 0.35336 -0.146234 -0.699252 0.699758
0.573414 0.709987 0.357507 -0.303378 -0.0806756 0.949449
0.347281 0.391072 0.525237 0.756526 -0.648705 -0.0827716
0.272995 0.519767 0.353456 -0.420726 -0.316146 0.850319
0.356701 0.399561 0.223238 -0.0477781 0.9838 -0.172785
0.864374 0.571248 0.30325 -0.487206 -0.143781 0.861369
0.315428 0.264878 0.171014 0.654524 0.540322 -0.52882
0.554068 0.548549 0.537589 0.803841 -0.594586 -0.0175242
0.472439 0.562197 0.365814 -0.558617 -0.0182042 0.829226
0.231082 0.351571 0.555683 -0.350986 -0.00180484 0.936379
0.702892 0.704575 0.569585 0.605859 0.420893 0.675117
0.629702 0.789402 0.484549 0.839734 0.468615 -0.274314
0.113503 0.303851 0.454865 0.932009 -0.28722 -0.221054
0.79376 0.724464 0.542689 0.543898 0.207718 0.813037
0.36406 0.70038 0.54223 0.931561 -0.225026 -0.285584
0.286801 0.520621 0.361035 -0.440882 -0.322595 0.837589
0.384494 0.617294 0.554205 0.763609 0.418767 -0.491463
0.570905 0.598515 0.374955 -0.0507112 0.79419 0.605549
0.702826 0.725709 0.699377 0.175484 0.880697 -0.439975
0.327818 0.411433 0.582663 0.464239 -0.19796 0.863304
0.476989 0.712991 0.348038 0.201139 -0.248821 0.947434
0.483697 0.685727 0.80602 -0.0594579 0.997193 -0.04551
0.485262 0.685273 0.812135 -0.0925671 0.989742 0.108818
0.425031 0.549743 0.32007 0.310577 0.769873 -0.557528
0.456828 0.462958 0.254265 -0.614092 -0.365068 0.699725
0.824604 0.584796 0.293603 -0.164759 -0.198496 0.966154
0.163144 0.303106 0.415959 -0.191058 0.133975 0.972393
0.469216 0.514473 0.345136 0.913114 0.147092 -0.380246
0.422027 0.661087 0.692003 0.821246 -0.512101 -0.251611
0.371607 0.692759 0.436862 0.843824 -0.432652 0.317448
0.543625 0.65866 0.751683 0.754192 0.402059 -0.519176
0.433942 0.381149 0.316176 -0.306321 0.765859 -0.565356
0.567961 0.829092 0.543222 0.192172 0.915955 0.352274
0.525295 0.84089 0.533704 -0.0838096 0.951042 0.297482
0.328448 0.245651 0.183019 0.787528 0.595495 0.158696
0.565872 0.593803 0.861893 0.251453 0.963376 -0.0931587
0.12653 0.205895 0.545456 0.82259 -0.111614 -0.557573
0.578802 0.624776 0.832562 0.623048 -0.446409 -0.642285
0.420147 0.510286 0.524256 0.407235 -0.374376 0.833068
0.571794 0.624102 0.593069 0.590329 -0.396598 0.703009
0.123466 0.301012 0.477639 0.872819 -0.0016718 -0.488042
0.385248 0.582049 0.546465 -0.217555 -0.0529057 0.974613
0.310825 0.441441 0.455792 0.0143237 0.336161 0.941696
0.6119 0.628509 0.855082 -0.599184 0.385967 0.701433
0.488629 0.507079 0.513992 -0.246677 0.816142 -0.522554
0.283239 0.337772 0.205316 0.717899 -0.592314 0.365767
0.445167 0.527026 0.534092 0.0350096 0.721071 -0.691976
0.647793 0.593999 0.522275 -0.11421 0.405373 0.906989
0.654199 0.650764 0.292659 0.194126 -0.566038 0.801196
0.327592 0.187901 0.165039 0.412574 0.862934 0.291766
0.478145 0.630164 0.353866 0.185693 0.371013 0.909872
0.174664 0.389668 0.48049 -0.450155 0.859518 -0.24205
0.476175 0.528428 0.553193 0.255974 0.927389 -0.272814
0.117846 0.320388 0.458307 0.967724 -0.116717 -0.223356
0.310345 0.496668 0.429714 0.78019 0.489601 0.389352
0.323691 0.208609 0.118333 0.499546 0.434314 0.74955
0.728705 0.653576 0.351136 -0.0951686 0.841792 0.531346
0.380991 0.641973 0.567599 -0.677926 -0.0855102 0.73014
0.249319 0.289067 0.198146 -0.489536 0.794439 -0.359473
0.636425 0.689419 0.370774 0.415746 0.874548 0.24964
0.414278 0.467787 0.239172 0.0174554 -0.330708 0.943572
0.449606 0.398504 0.325483 0.574192 -0.667825 0.473618
0.407631 0.575676 0.553442 -0.537176 -0.420832 0.730987
0.556852 0.786785 0.598685 0.167852 0.408571 0.89716
0.563828 0.595222 0.854931 0.0750711 0.991406 0.10714
0.641516 0.588882 0.313487 0.476029 0.816478 0.326742
0.452328 0.656433 0.809285 0.861242 -0.326513 -0.389424
0.33638 0.282452 0.263831 -0.155329 0.806576 -0.570358
0.57541 0.681741 0.335545 0.404587 -0.610284 0.681075
0.364722 0.639196 0.556263 0.806554 0.342253 -0.482009
0.670163 0.740469 0.53935 0.969447 0.244629 0.0181652
0.360386 0.644342 0.514917 0.962145 0.270175 -0.035812
0.500004 0.743936 0.626953 0.103615 0.467106 0.878109
0.312538 0.51881 0.372697 -0.163977 0.173543 0.971079
0.464541 0.432296 0.249857 0.76742 0.0515808 -0.639067
0.223509 0.405464 0.5196 0.74032 -0.605643 -0.29176
0.57733 0.832157 0.505074 0.323401 0.946133 0.0156413
0.421557 0.608857 0.662521 0.748575 0.663047 0.00203059
0.432975 0.593438 0.684185 0.573047 0.814677 0.0889889
0.656663 0.737728 0.475392 0.707761 0.455267 -0.540191
0.311179 0.380569 0.58121 0.34196 -0.461994 0.818306
0.696358 0.646145 0.362325 0.588992 0.53684 0.604062
0.385167 0.449195 0.387886 0.243924 0.884734 -0.397173
0.660143 0.693651 0.471126 0.85383 0.265329 -0.447855
0.657833 0.715558 0.467271 0.975779 -0.178957 -0.12582
0.478517 0.517855 0.38678 0.892302 -0.214213 -0.397379
0.584739 0.735942 0.367198 -0.408418 -0.326717 0.852321
0.392913 0.336237 0.19851 -0.303195 0.177175 0.936313
0.658452 0.636779 0.501193 0.175602 0.818668 0.546761
0.770905 0.735649 0.518748 -0.173438 0.7464 -0.6425
0.413013 0.786334 0.554322 0.64038 -0.589423 -0.492436
0.455109 0.511445 0.308934 0.837713 0.531284 -0.126394
0.833291 0.595074 0.356193 -0.143196 -0.309461 0.940069
0.284498 0.252791 0.152817 0.252183 -0.517102 0.81793
0.245737 0.323661 0.449373 0.657623 -0.424308 -0.62249
0.258271 0.313637 0.503046 -0.606299 0.773357 0.185258
0.598061 0.736155 0.373682 -0.600739 -0.436958 0.669463
0.698339 0.656476 0.347854 0.617114 0.70696 0.34551
0.354223 0.652562 0.439994 0.736877 -0.553829 0.387666
0.43637 0.521641 0.526345 0.108718 -0.658129 0.745015
0.216542 0.31004 0.535125 0.0788046 0.716368 -0.693258
0.710524 0.657406 0.519939 0.816151 -0.0710538 -0.573453
0.15367 0.541945 0.307045 0.753683 -0.604862 0.257106
0.24159 0.282377 0.222293 0.478441 -0.642791 -0.598259
0.424073 0.427041 0.372017 -0.018256 -0.650996 0.758862
0.415136 0.729882 0.599658 -0.513424 0.241405 0.82348
0.488124 0.587321 0.718961 -0.398033 0.692725 0.601417
0.353632 0.505637 0.292068 0.79582 -0.488622 0.357659
0.53533 0.654545 0.641676 0.0399827 -0.12217 0.991704
0.478845 0.624051 0.842442 -0.363923 -0.287063 0.88609
0.203536 0.53105 0.361192 0.515179 -0.420232 -0.746991
0.358049 0.711053 0.480279 0.967959 -0.247828 0.040453
0.589796 0.588065 0.515729 -0.370363 0.92695 0.0599566
0.429808 0.818978 0.507943 -0.589056 0.806031 0.0576861
0.111607 0.23577 0.511931 0.807291 -0.372364 -0.457849
0.238118 0.386883 0.55141 -0.567273 0.304784 0.765055
0.644576 0.75703 0.58522 0.729715 0.0702543 0.680132
0.399115 0.790695 0.484904 0.748432 -0.657345 0.0880122
0.621831 0.588705 0.33616 0.322302 0.861766 0.391767
0.50305 0.629412 0.347618 0.261803 0.624553 0.735794
0.369124 0.165484 0.181374 -0.546698 -0.265337 0.794177
0.743988 0.54775 0.333024 0.072805 0.872984 -0.482284
0.440184 0.458799 0.413944 -0.55614 0.823242 0.113933
0.411518 0.798733 0.462254 -0.614949 0.749395 -0.245449
0.114092 0.239037 0.513235 0.749875 -0.475139 -0.460359
0.226008 0.398325 0.481075 -0.255776 0.802419 -0.539169
0.579192 0.691781 0.617581 0.092857 0.448937 0.888726
0.319975 0.486835 0.579012 0.135392 0.390749 0.910486
0.269128 0.289179 0.181529 0.377296 -0.557009 0.739857
0.622536 0.675827 0.855283 0.581096 0.781306 -0.227791
0.376142 0.434024 0.509709 0.872525 -0.483024 0.0734004
0.653307 0.591844 0.523299 -0.0826955 0.36064 0.929032
0.705123 0.59654 0.368665 -0.335941 -0.309311 0.889646
0.569307 0.780588 0.598072 0.277129 0.273246 0.92116
0.237043 0.3526 0.557953 -0.418874 -0.0341138 0.907403
0.704633 0.613173 0.586858 0.810134 0.242125 0.533909
0.678227 0.579774 0.332255 0.111905 0.992277 0.0535091
0.77095 0.58063 0.352909 0.00864001 -0.510008 0.860127
0.453325 0.786216 0.592663 -0.405958 0.591113 0.696982
0.640761 0.691238 0.405486 0.81213 0.351334 -0.465843
0.145273 0.268507 0.403154 -0.683007 -0.0132706 0.730291
0.476522 0.505417 0.508527 -0.177003 0.795032 -0.580167
0.200207 0.289342 0.489768 -0.330771 0.943259 -0.0292074
0.602555 0.82206 0.518051 0.54111 0.830393 0.132844
0.184728 0.245868 0.46521 0.91954 0.323023 -0.223835
0.36878 0.168564 0.138227 0.337592 0.661805 0.669362
0.0922057 0.254605 0.446541 0.961521 0.180061 -0.207497
0.738818 0.518269 0.606045 0.772766 -0.632781 0.0491979
0.905439 0.51973 0.37383 0.772475 0.591498 -0.231111
0.670863 0.744364 0.497221 0.814351 0.307954 -0.491932
0.320858 0.384808 0.249906 -0.57275 0.796122 0.195315
0.135525 0.302635 0.494937 -0.594254 -0.293671 0.748746
0.460387 0.462773 0.256781 0.642355 0.354537 -0.679473
0.451585 0.593288 0.774108 0.80445 0.556819 -0.206914
0.103712 0.296065 0.429638 0.703889 -0.699142 -0.125463
0.702655 0.708005 0.671307 0.347473 0.808273 -0.475349
0.441677 0.645639 0.793008 0.930795 -0.252633 -0.264193
0.852551 0.52139 0.329867 0.450188 0.826477 -0.338033
0.175717 0.369677 0.442816 -0.253095 0.722062 -0.643871
0.656003 0.76424 0.496528 0.751252 0.561027 -0.347662
0.529453 0.530688 0.487768 -0.671531 0.737883 -0.0676384
0.311257 0.220406 0.217616 0.135014 -0.0680617 0.988503
0.564538 0.743729 0.613516 -0.0342235 0.523479 0.851351
0.241907 0.236781 0.195265 0.492593 0.80203 0.337786
0.677423 0.52521 0.605314 0.690833 0.646303 -0.324103
0.479364 0.822315 0.566917 -0.188293 0.758646 0.6237
0.245947 0.477453 0.517677 0.939765 -0.34093 0.0246656
0.631065 0.620674 0.476697 0.77607 -0.626831 0.0692729
0.117045 0.217612 0.504512 0.6622 0.703668 0.257569
0.407604 0.782815 0.5519 0.681113 -0.564637 -0.466122
0.504293 0.709631 0.643434 0.228194 0.246119 0.941994
0.666139 0.657403 0.462598 0.942076 0.155262 -0.2973
0.464815 0.678257 0.81219 -0.586011 0.703882 0.401423
0.68481 0.70902 0.622752 -0.540077 -0.389844 0.745881
0.340427 0.469749 0.349295 0.960958 0.160831 -0.225149
0.583713 0.644183 0.310366 0.412168 -0.0232697 0.91081
0.390087 0.476339 0.244981 0.291111 -0.351796 0.889659
0.427069 0.575757 0.341695 -0.178015 -0.48707 0.855028
0.494936 0.512611 0.43548 0.608937 -0.64178 -0.466169
0.266339 0.419555 0.470025 0.345292 0.0780127 0.935247
0.353447 0.209601 0.12712 0.804733 -0.26926 0.529059
0.516547 0.638834 0.722598 -0.446427 -0.277907 0.850571
0.337965 0.478098 0.423261 0.152164 0.594455 0.7896
0.349921 0.278446 0.205053 -0.656526 0.724067 0.211425
0.655865 0.773287 0.552629 0.505103 0.839508 0.200244
0.43326 0.693133 0.6656 -0.485431 0.777723 0.399379
0.456167 0.748776 0.616878 -0.38582 0.429115 0.816703
0.482103 0.586566 0.810953 0.487018 0.675238 -0.553955
0.705759 0.723611 0.69757 0.14692 0.826191 -0.543896
0.448454 0.462345 0.415886 -0.600428 0.796219 0.0743095
0.445582 0.53975 0.544583 -0.247253 -0.662684 0.706905
0.640329 0.624449 0.412278 0.855037 -0.484596 -0.184603
0.418963 0.45183 0.469616 -0.105651 0.835581 -0.539112
0.394955 0.499291 0.541141 0.567549 -0.03716 0.8225
0.470906 0.47164 0.330071 0.979968 0.145821 0.135641
0.629624 0.556842 0.562467 0.85528 0.487024 -0.176928
0.620735 0.601437 0.457572 0.908245 -0.220126 0.355858
0.572352 0.568475 0.396289 -0.312975 0.587582 0.746187
0.417217 0.803687 0.46566 -0.603183 0.767703 -0.216338
0.137858 0.276246 0.486787 -0.371823 0.0905584 0.923876
0.532292 0.595148 0.612662 0.449455 -0.270059 0.851504
0.60545 0.598526 0.575857 0.553059 0.574478 -0.603408
0.463944 0.473759 0.481108 -0.531859 0.750538 -0.392198
0.461263 0.66079 0.822583 0.68994 -0.433412 -0.579773
0.36775 0.39041 0.302666 0.518537 0.793006 -0.319781
0.476896 0.669426 0.82695 -0.340773 0.50775 0.791242
0.55024 0.597596 0.83165 -0.426463 0.887028 -0.176948
0.534119 0.539568 0.5605 -0.454236 0.791851 -0.408219
0.512377 0.654293 0.655713 0.815729 0.0520016 0.576092
0.679542 0.615718 0.62668 -0.0240205 -0.0510612 0.998407
0.414912 0.639555 0.364831 0.00497995 -0.391669 0.920093
0.682705 0.660696 0.621636 0.928088 -0.108082 0.356329
0.500523 0.594352 0.719628 -0.257438 0.347265 0.901739
0.371877 0.412475 0.334856 0.219284 0.772331 -0.596171
0.593451 0.809934 0.449346 0.526272 0.731315 -0.433839
0.14063 0.231233 0.52924 0.579952 0.524868 0.623033
0.66239 0.641722 0.394132 0.48583 -0.123319 0.86531
0.607571 0.647079 0.303651 0.225644 -0.0754712 0.971282
0.607428 0.597127 0.499158 -0.485827 0.86513 0.124586
0.815029 0.560988 0.337123 -0.290298 -0.5028 0.814199
0.429766 0.818501 0.482507 -0.658885 0.740351 -0.133232
0.219109 0.355498 0.551582 -0.399676 0.24844 0.882347
0.395819 0.669287 0.384695 0.621783 -0.01195 0.783099
0.725173 0.586376 0.353443 0.62415 -0.462165 0.629952
0.339232 0.566603 0.519665 -0.564471 0.467443 0.680345
0.351786 0.680073 0.49897 0.976781 -0.203876 -0.0658267
0.623543 0.688101 0.327806 0.0807472 0.80729 -0.584605
0.515305 0.51322 0.449732 -0.646033 0.622072 0.442344
0.335309 0.602471 0.501334 0.683016 -0.354724 -0.638483
0.381528 0.393811 0.315756 0.35964 0.736383 -0.573062
0.409153 0.741001 0.589169 0.65411 -0.385572 -0.650749
0.733705 0.707083 0.561159 -0.058987 0.25559 0.964984
0.46612 0.402976 0.306902 0.750969 -0.527789 0.396844
0.317602 0.597068 0.449029 0.952468 -0.295752 0.0730448
0.520181 0.625177 0.633754 0.459877 -0.518105 0.721166
0.476046 0.807574 0.410849 -0.400093 0.741097 -0.539167
0.413453 0.405069 0.343012 0.216699 0.728891 -0.64943
0.41217 0.48075 0.243725 -0.0120757 -0.396424 0.917988
0.227477 0.535681 0.335321 0.491483 0.67138 -0.554701
0.641417 0.687692 0.627979 0.742788 0.021203 -0.669191
0.245262 0.239359 0.231796 0 -0.417874 0.908505
0.636416 0.652326 0.858988 -0.123339 0.941056 0.314961
0.382236 0.310303 0.200637 -0.472932 0.531339 0.702861
0.354831 0.520153 0.313094 0.73623 -0.552354 0.390987
0.904429 0.574138 0.351311 0.855759 -0.133775 -0.49978
0.438408 0.634944 0.786241 0.996222 -0.0444699 -0.0745889
0.284204 0.220268 0.162005 0.50072 0.846876 0.17911
0.678608 0.732227 0.654378 -0.263096 0.912754 -0.312508
0.509694 0.698703 0.641108 0.425527 0.136615 0.894574
0.668079 0.651448 0.629697 0.0128604 -0.385739 0.922518
0.40881 0.523129 0.532146 0.29114 -0.212315 0.932824
0.262384 0.314631 0.505602 -0.656525 0.734278 0.17266
0.293337 0.28513 0.263211 -0.269279 -0.464626 0.843571
0.330813 0.456179 0.44688 0.242759 0.646531 0.723233
0.55652 0.59919 0.814443 0.976059 -0.197073 -0.0920392
0.566984 0.726621 0.621683 0.046814 0.469492 0.881695
0.264684 0.326699 0.562584 0.157115 0.896691 -0.413835
0.147945 0.2764 0.487695 -0.00741421 -0.11102 0.993791
0.497656 0.503303 0.498941 -0.351199 0.899192 -0.260983
0.462851 0.446767 0.351612 0.750573 -0.363584 0.551767
0.654873 0.660345 0.420693 0.930607 0.0203217 -0.365455
0.547185 0.523922 0.451761 -0.0155807 0.99459 0.102703
0.487441 0.581639 0.806335 0.393172 0.782768 -0.48238
0.390663 0.435164 0.234841 0.437776 -0.175367 0.881816
0.294027 0.500472 0.382278 -0.237521 0.91386 0.329307
0.410498 0.684843 0.362977 0.595267 -0.0494329 0.802006
0.529001 0.568423 0.385159 -0.140749 0.548582 0.824165
0.312406 0.551961 0.389741 -0.434682 0.759152 -0.484501
0.779927 0.72799 0.510913 0.184018 -0.0903144 0.978765
0.302486 0.444344 0.454146 0.071129 0.208124 0.975513
0.44406 0.79457 0.58122 -0.574196 0.593474 0.563992
0.508248 0.525663 0.548076 -0.145703 0.968408 -0.202375
0.677675 0.624941 0.377185 0.419177 -0.342875 0.840671
0.263695 0.267134 0.165263 0.233132 -0.513239 0.825975
0.463582 0.470735 0.466418 -0.522288 0.829808 -0.196554
0.465353 0.681999 0.802058 -0.388104 0.91924 0.0661359
0.343023 0.628887 0.502633 0.74434 -0.405019 -0.530959
0.452104 0.592013 0.76138 0.811885 0.583816 -0.00142629
0.345888 0.461019 0.433537 0.205047 0.62393 0.7541
0.799483 0.595668 0.358588 0.118246 -0.358957 0.925834
0.531536 0.844002 0.474137 0.264635 0.957533 -0.114449
0.305465 0.390849 0.482977 -0.390438 0.552741 0.736231
0.644373 0.638774 0.471776 -0.379244 0.910662 -0.163915
0.550779 0.798379 0.398058 -0.271877 -0.677258 0.68367
0.537702 0.678571 0.773946 0.360177 0.826284 -0.433045
0.319289 0.258899 0.222756 -0.50481 0.824047 -0.257125
0.899843 0.624572 0.396315 -0.215452 0.917761 -0.333609
0.697831 0.617758 0.368811 -0.0314632 -0.0679505 0.997192
0.636955 0.696706 0.403423 0.769179 -0.024868 -0.63855
0.340103 0.288375 0.27134 -0.157943 0.768518 -0.620027
0.339703 0.499374 0.384243 0.705075 0.648787 0.286259
0.618215 0.631139 0.859245 -0.671196 0.159703 0.723872
0.628472 0.619978 0.879142 -0.416224 0.806639 0.419633
0.759622 0.689303 0.546032 -0.229825 0.518188 0.823809
0.619839 0.591527 0.460633 0.940111 -0.126897 0.316368
0.715605 0.621822 0.569799 0.819191 0.168163 0.548313
0.175632 0.190476 0.483996 0.365835 0.914698 0.171734
0.263347 0.496684 0.393192 0.249663 0.785153 -0.566748
0.561981 0.811233 0.418863 0.294978 0.778595 -0.553876
0.129539 0.211645 0.545905 0.653503 -0.344725 -0.673868
0.458861 0.586628 0.658477 0.156337 0.961381 0.226507
0.411427 0.659893 0.371944 0.545769 0.0215495 0.837658
0.580076 0.537772 0.444141 -0.504744 0.836035 0.215125
0.599392 0.680329 0.859656 -0.00568899 0.783852 0.620922
0.601445 0.683372 0.621433 -0.0246986 0.356943 0.933799
0.712637 0.685215 0.519435 0.342772 0.503929 0.79282
0.466592 0.588896 0.647329 -0.235379 0.926475 0.293669
0.899441 0.621229 0.378966 0.914126 -0.403817 0.0361446
0.713758 0.707008 0.560709 0.224098 0.45139 0.863729
0.638173 0.572914 0.598567 -0.580225 -0.340944 0.739659
0.268817 0.279441 0.24745 -0.568874 -0.305645 0.76352
0.845825 0.595897 0.357855 -0.234198 -0.357791 0.903956
0.253174 0.365819 0.465769 0.714532 0.240011 -0.657145
0.610242 0.75249 0.607685 0.166916 0.630196 0.758283
0.282995 0.345812 0.226638 0.823796 -0.565246 0.0430923
0.23519 0.34736 0.439369 -0.465583 -0.271581 0.842304
0.258555 0.294949 0.193964 0.58789 -0.594009 0.549125
0.234779 0.539815 0.357694 0.26506 0.96295 0.0496951
0.369689 0.430514 0.354622 -0.145356 -0.688084 0.710923
0.305171 0.217762 0.119861 0.358808 0.227534 0.905254
0.451268 0.826723 0.536012 -0.500826 0.847416 0.176237
0.498669 0.8228 0.423593 -0.129033 0.833436 -0.537341
0.773697 0.547869 0.301898 -0.0126781 0.912268 0.409398
0.80049 0.729424 0.535401 0.620126 0.464812 0.631976
0.645499 0.747741 0.466321 0.631704 0.58092 -0.513305
0.752764 0.692204 0.544262 -0.157152 0.434799 0.886709
0.316257 0.382475 0.495305 -0.37839 0.579893 0.721488
0.613103 0.692336 0.619978 -0.0416686 0.427052 0.903267
0.56097 0.608627 0.883595 -0.516542 -0.277321 0.81011
0.324367 0.47272 0.432802 0.418905 0.601084 0.6806
0.569826 0.627213 0.883545 -0.179912 0.227378 0.957043
0.342868 0.39025 0.203616 -0.0803091 0.816842 -0.571243
0.241529 0.445891 0.508695 0.948014 -0.254673 0.190817
0.505567 0.844554 0.464504 -0.0626802 0.972525 -0.224203
0.125672 0.225794 0.475091 0.492724 0.814158 0.307197
0.506335 0.772177 0.613375 0.238477 0.412068 0.879391
0.361635 0.414594 0.543965 0.837975 -0.48034 0.258983
0.363798 0.469811 0.426819 0.469168 0.633591 0.615178
0.154145 0.23515 0.422713 0.669947 -0.360849 -0.648814
0.295728 0.223863 0.127292 0.710841 -0.0053226 0.703333
0.438451 0.398571 0.229694 -0.458064 -0.0931072 0.88403
0.408586 0.441624 0.454844 0.140689 0.813519 -0.564263
0.389637 0.491979 0.542915 0.453709 -0.218627 0.863916
0.316593 0.593575 0.441221 0.931937 -0.337934 0.131507
0.293233 0.457549 0.588177 -0.191196 0.216471 0.957384
0.322273 0.222501 0.215638 0.265615 0.240912 0.933493
0.688775 0.642707 0.373963 0.653022 0.33721 0.678124
0.457742 0.788835 0.392694 -0.412545 0.723691 -0.553243
0.417261 0.448338 0.407898 -0.0391135 0.985946 0.162419
0.71841 0.552285 0.318629 0.305503 0.945316 0.114213
0.435715 0.454824 0.408436 -0.499779 0.862774 -0.0764381
0.578504 0.588866 0.546889 -0.197409 0.899235 -0.390392
0.782171 0.568841 0.343392 -0.00101958 -0.65579 0.754943
0.681955 0.529768 0.613594 0.664651 0.544477 -0.511648
0.669288 0.633065 0.489989 0.277994 0.833294 0.477849
0.683632 0.604018 0.621843 0.113882 -0.489239 0.864682
0.478732 0.576001 0.604852 -0.303967 -0.46186 0.83324
0.411107 0.679452 0.644775 0.859673 -0.47958 -0.17597
0.711283 0.651097 0.578189 0.900915 0.117514 0.417783
0.268696 0.324275 0.227587 0.819247 -0.5484 -0.167606
0.492477 0.518959 0.417269 0.715699 -0.591691 -0.371047
0.595469 0.813668 0.45645 0.537247 0.767326 -0.350109
0.551723 0.719411 0.34923 -0.390261 -0.155226 0.907525
0.392921 0.618091 0.566169 0.712423 0.585746 -0.386466
0.330428 0.417658 0.582172 0.460988 -0.161842 0.872523
0.371109 0.458714 0.431195 0.440652 0.705094 0.555579
0.644225 0.674714 0.398164 0.892458 0.43966 -0.101084
0.413543 0.612613 0.589074 0.580863 0.569688 -0.581423
0.227242 0.499578 0.362865 0.445539 0.891758 -0.0791323
0.137784 0.196789 0.546729 -0.162747 0.98666 -0.00393897
0.563466 0.823457 0.557999 0.141336 0.914479 0.379147
0.522055 0.686053 0.787929 0.0189535 0.990776 -0.134179
0.189765 0.233072 0.487659 0.679044 0.32242 0.659503
0.507805 0.592904 0.615819 0.108632 -0.457442 0.882579
0.365645 0.399413 0.235216 -0.331589 0.905614 -0.26441
0.496579 0.775293 0.61335 0.103459 0.463157 0.880217
0.349577 0.433986 0.274511 0.891437 0.102442 0.441414
0.534594 0.537496 0.489815 -0.423483 0.877871 -0.223618
0.262472 0.354553 0.473833 0.8182 0.0662081 -0.571109
0.311677 0.227552 0.121939 0.208422 -0.315405 0.925786
0.574965 0.557332 0.503914 0.49377 -0.446356 0.746296
0.338282 0.46536 0.307544 0.987428 -0.014283 0.157425
0.514322 0.748527 0.618294 0.312655 0.367909 0.875722
0.861719 0.590859 0.308333 -0.453463 -0.254146 0.854272
0.560594 0.596039 0.570499 0.820521 -0.399712 0.408627
0.236785 0.432008 0.504 0.940112 -0.253435 0.227948
0.405227 0.418528 0.227355 0.165106 -0.0999539 0.981198
0.413323 0.346539 0.279147 0.443745 -0.557624 0.701531
0.679788 0.665144 0.359405 0.523231 0.770276 0.36456
0.323139 0.550572 0.379416 0.446072 -0.551407 0.704961
0.707993 0.573751 0.545011 0.74761 0.430728 -0.505523
0.252962 0.484055 0.495621 0.866705 -0.350993 0.354437
0.4494 0.793451 0.408226 -0.404488 0.696248 -0.592983
0.511794 0.79971 0.592079 -0.0551743 0.644627 0.762504
0.627967 0.769262 0.468488 0.887208 0.325347 -0.327126
0.586557 0.649786 0.309913 0.411883 -0.0816804 0.907569
0.726729 0.632381 0.267893 0.512838 -0.391614 0.76396
0.365646 0.577877 0.534956 -0.640527 -0.00508295 0.767919
0.371135 0.174664 0.190262 0.833275 0.347688 0.429843
0.500859 0.568517 0.74959 -0.185912 0.941372 0.281523
0.443843 0.779859 0.589594 0.60173 -0.520311 -0.605969
0.648878 0.746717 0.476186 0.686962 0.504124 -0.523395
0.573185 0.706056 0.356793 -0.214868 -0.180542 0.959811
0.558422 0.674801 0.807298 0.412313 0.817201 -0.402716
0.0894744 0.264343 0.413678 0.671315 0.730298 0.126491
0.365389 0.312509 0.290217 0.29358 -0.583701 0.757036
0.366876 0.547397 0.333247 -0.529117 0.542161 -0.652761
0.167673 0.275521 0.484031 -0.483525 0.721614 -0.495456
0.636688 0.658596 0.87155 0.133117 -0.418404 0.898453
0.543834 0.653675 0.641276 0.163545 -0.0212357 0.986307
0.275504 0.505532 0.476917 0.736084 -0.498825 0.457552
0.587722 0.599519 0.890835 -0.126468 -0.543106 0.830086
0.894769 0.594481 0.346965 0.798082 0.580788 -0.16047
0.647598 0.595633 0.296219 0.0925833 0.759324 0.644093
0.434707 0.347017 0.228862 0.626092 -0.622767 -0.469223
0.423513 0.384853 0.326612 -0.00628373 0.825042 -0.565036
0.565383 0.693561 0.348879 -0.0473516 -0.505156 0.861728
0.633518 0.767871 0.580528 0.371093 0.75379 0.542302
0.479865 0.678381 0.77934 -0.154393 0.97745 -0.144061
0.493473 0.730467 0.349752 0.246101 -0.121062 0.961654
0.705265 0.576953 0.563903 0.937731 0.297421 -0.179447
0.50594 0.504084 0.464796 -0.498876 0.865224 0.0501002
0.477809 0.505735 0.394221 0.90693 -0.262657 -0.329377
0.306727 0.398088 0.47866 -0.324207 0.49692 0.80496
0.119423 0.25206 0.399092 0.425767 0.824929 0.371773
0.206293 0.546529 0.325057 0.586554 0.609804 -0.533004
0.632599 0.567878 0.583453 0.88569 0.338799 -0.31744
0.187902 0.224026 0.458046 0.689718 0.226354 -0.687788
0.471647 0.828054 0.439173 -0.268206 0.891479 -0.365144
0.371215 0.633239 0.551094 0.729397 0.649427 -0.215
0.676871 0.646165 0.482936 -0.619707 0.338239 0.708208
0.253561 0.494658 0.379983 0.236878 0.912561 -0.333348
0.733044 0.694059 0.519473 -0.659582 0.746184 -0.0903368
0.519446 0.665002 0.740562 -0.304149 -0.690096 0.656705
0.69505 0.611541 0.602709 0.907341 0.179323 0.380232
0.355585 0.312227 0.29195 0.0539518 -0.554814 0.830223
0.695001 0.530087 0.554761 0.184223 0.588291 0.787385
0.376159 0.430266 0.356068 0.213031 0.714202 -0.666733
0.816475 0.636322 0.307448 0.71749 0.592254 -0.366666
0.465456 0.489727 0.292429 0.89295 0.416165 -0.171602
0.6406 0.68541 0.626322 0.712644 0.031948 -0.700798
0.419976 0.712471 0.606158 0.749081 -0.215324 -0.626509
0.516066 0.545918 0.406388 -0.383039 0.633739 0.672053
0.557428 0.829844 0.452086 0.35534 0.836322 -0.417491
0.440635 0.523786 0.286436 0.489972 0.796276 -0.354785
0.431498 0.50529 0.258662 -0.349623 -0.490668 0.798129
0.71652 0.631636 0.277927 0.61084 -0.442113 0.656819
0.461671 0.83471 0.472849 -0.3905 0.904184 -0.173094
0.294481 0.359427 0.243247 0.763952 -0.615631 -0.193327
0.683894 0.695471 0.505114 0.745702 0.43152 -0.50766
0.664064 0.597424 0.614971 -0.00550986 -0.375467 0.926819
0.547374 0.622475 0.786996 0.807214 -0.310125 -0.502223
0.703786 0.5388 0.550867 -0.0524977 0.503513 0.862391
0.211044 0.522297 0.36812 -0.600287 0.0915848 0.794523
0.637708 0.54521 0.555762 0.769801 0.563393 0.29999
0.409467 0.623032 0.642484 0.870929 0.48447 0.0822936
0.847548 0.617888 0.311142 -0.26588 -0.506264 0.820368
0.472875 0.436241 0.262244 0.907237 0.134068 -0.39868
0.560917 0.79618 0.591648 0.220587 0.620389 0.752635
0.522389 0.595577 0.738869 0.978254 -0.164308 -0.12658
0.540526 0.627883 0.772332 0.816682 -0.320424 -0.479956
0.736018 0.659174 0.293109 -0.162622 0.967706 -0.192612
0.378985 0.725084 0.434154 0.874672 0.204806 0.439322
0.650926 0.712832 0.420338 0.894459 0.229749 -0.383611
0.863665 0.632231 0.349564 0.0233426 0.999286 0.0297092
0.220216 0.271133 0.18962 -0.554812 0.671042 -0.491819
0.593837 0.594431 0.370417 0.307029 0.949357 -0.066735
0.719742 0.68298 0.532778 0.815514 -0.525643 -0.242151
0.52549 0.79822 0.597905 -0.0470467 0.557195 0.829048
0.383925 0.763802 0.532337 0.82239 -0.483378 -0.300033
0.604786 0.821378 0.506713 0.559114 0.828789 0.022376
0.669674 0.709014 0.49717 0.735901 0.50117 -0.455278
0.544921 0.654616 0.7494 0.769425 0.299336 -0.564255
0.168739 0.350861 0.429066 0.133489 -0.560088 0.817607
0.679376 0.604816 0.291233 0.22272 0.399866 0.889102
0.228071 0.295968 0.474106 -0.454994 0.890494 -0.00147717
0.502507 0.639811 0.717707 0.673372 0.421713 -0.607229
0.295138 0.536058 0.415987 0.709797 -0.397633 -0.581443
0.464362 0.823904 0.438706 -0.377734 0.849344 -0.36869
0.897716 0.553898 0.351591 0.627976 0.613879 0.478329
0.35151 0.589508 0.370851 0.68609 -0.321294 0.652726
0.652681 0.663385 0.392399 0.646781 0.457949 0.609883
0.308975 0.361985 0.269801 0.687744 -0.472019 -0.551549
0.765792 0.601869 0.361475 -0.00453008 -0.357775 0.933797
0.398383 0.451195 0.408002 0.23378 0.967639 0.0949801
0.360102 0.716956 0.492906 0.957549 -0.28657 -0.0312596
0.345689 0.367855 0.289798 -0.112697 0.526573 0.842627
0.788542 0.728715 0.544025 0.441131 0.471209 0.763783
0.476768 0.840002 0.522208 -0.249355 0.943138 0.219804
0.427511 0.611732 0.603665 0.696292 0.666782 -0.265669
0.346831 0.180685 0.155983 0.422874 0.897947 -0.121936
0.507929 0.713242 0.342352 0.258828 -0.213208 0.942099
0.745558 0.630299 0.263124 0.0585433 -0.312914 0.947975
0.173643 0.214456 0.445048 -0.569264 0.163819 0.805668
0.311593 0.350785 0.18877 0.367659 -0.481093 0.795849
0.705261 0.716843 0.647946 0.79056 0.430304 -0.435721
0.109865 0.301915 0.42318 -0.640099 0.760544 -0.108842
0.388776 0.390529 0.316928 0.362979 0.722506 -0.588415
0.638989 0.625243 0.291886 0.609051 -0.0864369 0.788407
0.139512 0.322216 0.502194 0.739331 -0.0367363 -0.672339
0.551842 0.593989 0.593786 0.807166 -0.252609 0.533546
0.504721 0.502777 0.472223 -0.428258 0.903539 -0.0145504
0.353122 0.654901 0.464058 -0.670563 0.741384 -0.0263596
0.558922 0.670158 0.783207 0.793542 0.557176 -0.244635
0.628159 0.619126 0.487006 0.712214 -0.667748 -0.216481
0.534948 0.525508 0.45466 0.195295 0.976314 -0.0931183
0.204466 0.527348 0.323836 -0.150936 0.53933 0.828457
0.335855 0.640021 0.470971 0.949018 -0.295173 -0.110622
0.169491 0.37745 0.51721 0.662851 -0.503192 -0.55446
0.124134 0.308653 0.415058 -0.458326 0.686983 -0.563907
0.555315 0.635772 0.633142 -0.453625 0.693996 -0.559101
0.352469 0.517836 0.314242 0.752557 -0.531193 0.389221
0.285349 0.23186 0.138123 0.607171 -0.238636 0.757889
0.216871 0.314029 0.434172 -0.424163 0.410093 0.807409
0.266206 0.39058 0.474504 -0.122144 0.108983 0.986511
0.272054 0.222926 0.180927 0.525943 0.797574 0.295399
0.339802 0.321315 0.295871 -0.174375 -0.264784 0.948411
0.440851 0.539369 0.543285 -0.123147 -0.636896 0.761051
0.662666 0.622224 0.510681 0.0633911 0.484913 0.872262
0.374962 0.660043 0.565401 0.793835 0.0719468 -0.603863
0.729699 0.605081 0.370132 0.438779 -0.508369 0.740968
0.32438 0.292342 0.178427 -0.406751 0.0844579 0.909626
0.372078 0.742531 0.462831 0.90632 -0.368356 0.207118
0.475599 0.573043 0.773454 0.46001 0.866087 -0.195662
0.474107 0.49805 0.36919 0.990646 -0.0729225 0.115336
0.854035 0.574102 0.299272 -0.39991 -0.191592 0.896306
0.292338 0.503179 0.566769 -0.325598 0.666115 0.671027
0.315795 0.5822 0.428267 0.921269 -0.24991 0.298009
0.536356 0.610031 0.776121 0.818634 -0.31438 -0.480628
0.114365 0.258712 0.388448 -0.0132854 0.472129 0.88143
0.305072 0.302846 0.276114 -0.462234 -0.33452 0.821241
0.174484 0.272589 0.450853 0.906927 -0.421079 0.0132927
0.466874 0.802014 0.404075 -0.318724 0.835636 -0.447356
0.596825 0.656588 0.873697 0.0173201 0.441716 0.896988
0.53573 0.542009 0.563539 -0.462531 0.767622 -0.443646
0.31433 0.566433 0.429556 0.954066 -0.243132 0.175058
0.608447 0.566596 0.432296 0.740015 -0.609547 -0.284308
0.638606 0.78033 0.496954 0.71598 0.591523 -0.370774
0.64586 0.567697 0.534745 0.0608068 0.513134 0.856152
0.15824 0.290307 0.419186 -0.543067 0.192753 0.817266
0.250287 0.473723 0.541816 0.844162 -0.39269 -0.364944
0.397951 0.329504 0.201292 -0.488135 0.360339 0.794909
0.772934 0.696071 0.542208 -0.347146 0.550605 0.75916
0.34474 0.504391 0.317523 0.904786 -0.307316 0.294821
0.519253 0.647787 0.343334 -0.216696 0.0363849 0.975561
0.303092 0.54386 0.496266 0.764506 -0.589571 -0.260648
0.799412 0.710254 0.534897 0.51387 -0.451007 0.729747
0.294902 0.256197 0.151136 0.0978295 -0.631533 0.769152
0.587313 0.82082 0.540967 0.410529 0.845429 0.341636
0.545828 0.622454 0.874125 -0.676443 -0.0683853 0.733313
0.204097 0.344148 0.541481 -0.592406 -0.0041035 0.805629
0.507214 0.685824 0.793179 -0.193656 0.981059 -0.00453376
0.266106 0.32105 0.214697 0.791998 -0.579707 0.191517
0.404592 0.665721 0.37832 0.533572 -0.229348 0.814064
0.542278 0.536569 0.531058 -0.609641 0.782176 0.128602
0.725818 0.658281 0.301591 -0.215403 0.91005 -0.354134
0.328858 0.377209 0.197776 0.315544 -0.559003 0.766777
0.407459 0.43747 0.44966 0.210052 0.811055 -0.545955
0.648089 0.621088 0.881514 0.437361 -0.313181 0.842991
0.67076 0.708702 0.500225 0.713449 0.510085 -0.480421
0.152074 0.205609 0.483797 0.530033 0.777631 0.338165
0.355868 0.606743 0.376368 0.671176 -0.480834 0.5642
0.487134 0.566283 0.753966 0.07713 0.981525 0.175102
0.746916 0.701041 0.562722 0.0393982 0.128634 0.990909
0.159987 0.290907 0.501233 -0.228529 -0.588267 0.775704
0.646569 0.534894 0.553712 0.491158 0.813812 0.310602
0.466826 0.839444 0.509055 -0.334001 0.937869 0.0940475
0.228727 0.30127 0.457109 -0.502315 0.778717 0.375873
0.688211 0.738925 0.684761 -0.346357 0.936466 0.0553939
0.207384 0.513826 0.340262 0.262927 0.824012 0.50187
0.47713 0.825223 0.429963 -0.17105 0.878591 -0.445893
0.552286 0.786552 0.386536 -0.24149 -0.681435 0.69089
0.468555 0.511075 0.518033 0.12585 0.77247 -0.622456
0.586677 0.774535 0.394184 0.57229 0.512233 -0.640391
0.397332 0.336078 0.27978 0.483917 -0.409757 0.773255
0.636822 0.596941 0.610936 0.459159 0.72667 -0.511002
0.248883 0.322272 0.455018 0.710469 -0.438537 -0.550381
0.315189 0.370343 0.271052 -0.573799 0.56049 0.597165
0.557853 0.605771 0.877867 0.580935 0.489699 -0.650161
0.365582 0.427164 0.549116 0.87671 -0.306026 0.371116
0.257184 0.463709 0.561002 0.717266 -0.354931 -0.599628
0.488676 0.783795 0.378825 0.0755934 -0.687611 0.722133
0.657901 0.537985 0.581666 0.218897 0.795645 -0.56483
0.371426 0.508344 0.551356 0.249691 0.139478 0.958228
0.676291 0.561983 0.620518 0.130762 0.277602 0.951756
0.605203 0.688841 0.825048 -0.409714 -0.390499 0.824406
0.183428 0.393452 0.481253 -0.38829 0.895139 -0.218992
0.361959 0.392938 0.295351 0.656874 0.697037 -0.287498
0.682271 0.519952 0.590137 0.447542 0.890853 0.0780118
0.859957 0.579036 0.35962 -0.352719 -0.38603 0.852391
0.36103 0.199785 0.114729 0.880822 -0.187966 0.434536
0.478244 0.699424 0.655613 0.379607 0.684842 0.622005
0.689412 0.720171 0.681604 0.064739 0.884055 -0.462878
0.64549 0.701192 0.429563 0.972739 -0.166974 -0.160929
0.782958 0.55014 0.300823 -0.139294 0.887364 0.439524
0.38384 0.31658 0.281707 0.586909 -0.620102 0.520587
0.769861 0.585015 0.266867 -0.0642807 0.654925 0.752955
0.166653 0.33014 0.523763 -0.463799 -0.253281 0.848964
0.394993 0.451687 0.403494 0.225461 0.965293 -0.131823
0.335845 0.391587 0.210801 -0.269599 0.906307 -0.325459
0.501415 0.525937 0.552241 -0.108691 0.935623 -0.33585
0.619311 0.591714 0.885802 -0.301427 0.952174 -0.0500596
0.662737 0.721015 0.658425 0.950179 -0.202703 -0.236794
0.137802 0.278756 0.398579 -0.550866 -0.239481 0.799497
0.648049 0.666248 0.869712 0.266956 0.140928 0.953349
0.520351 0.846156 0.495673 0.0670589 0.997749 -0.000429734
0.889518 0.5789 0.370822 -0.646772 -0.101119 0.75595
0.526902 0.694243 0.341928 -0.21267 0.064812 0.974972
0.581137 0.627762 0.588042 0.201427 -0.480903 0.853323
0.575044 0.810278 0.573589 0.280005 0.692328 0.665041
0.375955 0.508759 0.268988 0.473761 -0.54397 0.692566
0.702214 0.595028 0.366891 -0.362217 -0.316955 0.876549
0.569301 0.621917 0.331329 0.709622 0.491395 0.504943
0.793782 0.720955 0.543206 0.578362 0.0472422 0.814411
0.418008 0.435752 0.443113 -0.242246 0.937177 -0.251029
0.527093 0.527628 0.477442 0.755731 -0.654864 -0.00489846
0.442181 0.462806 0.477803 -0.233632 0.686416 -0.688658
0.727544 0.567103 0.285615 0.214984 0.647299 0.731291
0.331388 0.43327 0.583202 0.47351 -0.0865577 0.876525
0.140822 0.205031 0.552109 0.458277 0.345458 0.818927
0.410255 0.623346 0.662638 0.917242 0.384682 -0.103378
0.608767 0.743159 0.613861 0.220869 0.300587 0.927828
0.492668 0.495357 0.463383 -0.607052 0.785198 -0.122279
0.644136 0.569823 0.533538 0.0651918 0.528461 0.846451
0.705302 0.736268 0.70984 0.28677 -0.281538 0.915696
0.634341 0.755899 0.466495 0.750082 0.514842 -0.415109
0.507447 0.661609 0.660775 0.870426 0.2865 0.400344
0.470778 0.514588 0.526166 -0.104321 -0.680744 0.725055
0.568146 0.656251 0.870861 -0.324207 0.502703 0.801361
0.348053 0.198559 0.172832 0.744409 -0.159162 0.648477
0.232582 0.33315 0.435321 -0.457135 0.0869399 0.885138
0.338141 0.463726 0.310064 0.995929 0.0613199 0.0660672
0.341574 0.485186 0.355986 0.985241 0.0687334 -0.156768
0.535029 0.670733 0.640817 0.245108 0.20617 0.94732
0.346139 0.443075 0.344051 0.847322 0.404895 -0.343664
0.436645 0.756507 0.602863 0.559829 -0.387734 -0.732294
0.713259 0.535732 0.553197 -0.23221 0.507594 0.829715
0.580274 0.680301 0.855723 -0.158487 0.714052 0.681918
0.456452 0.394882 0.308793 0.667 -0.603812 0.436489
0.350546 0.501197 0.558949 0.403917 0.496112 0.768586
0.684856 0.690234 0.642822 -0.379145 -0.500712 0.778162
0.378654 0.4408 0.368669 -0.307976 -0.674568 0.670901
0.657042 0.643938 0.426348 0.885562 -0.222245 -0.407905
0.64241 0.724353 0.427296 0.712038 0.618148 -0.333009
0.728399 0.51949 0.575237 -0.555765 0.80527 0.206557
0.729378 0.656784 0.295449 -0.295106 0.913188 -0.281069
0.604192 0.77319 0.416616 0.744863 0.535811 -0.397601
0.621272 0.592363 0.330532 0.298791 0.857533 0.418761
0.115139 0.244597 0.436539 0.460269 0.836869 0.296315
0.210138 0.248427 0.220278 0.785239 0.577802 -0.222588
0.387478 0.531388 0.292373 -0.279788 0.872519 -0.400538
0.507015 0.631425 0.716942 0.679708 0.168936 -0.713763
0.478724 0.586861 0.367617 -0.371767 0.0731231 0.925442
0.46998 0.39421 0.280897 0.852849 -0.505894 0.129306
0.690014 0.521056 0.574734 0.35369 0.894145 0.274605
0.727836 0.610943 0.564254 0.972335 -0.00657473 0.233496
0.434795 0.344937 0.253165 -0.349498 0.889943 -0.293007
0.273698 0.500628 0.397214 -0.042032 -0.688245 0.72426
0.449029 0.442503 0.241849 -0.525991 -0.258415 0.810281
0.596931 0.719993 0.613283 0.461227 -0.294825 0.836868
0.502827 0.527818 0.417415 0.464366 -0.711556 -0.527306
0.41873 0.606522 0.703224 0.710004 0.590682 -0.383392
0.171559 0.287602 0.499078 0.069481 0.71781 -0.692763
0.483845 0.569361 0.772336 0.286379 0.944339 -0.1619
0.584585 0.649284 0.620648 -0.192844 0.977594 0.0843863
0.5506 0.804023 0.404073 0.274322 0.699854 -0.659509
