-0.380007 0.030450 0.058334
-0.141011 0.032926 0.023149
-0.481028 -0.117315 0.005716
-0.388673 -0.074414 -0.063381
-0.125214 0.039952 0.014855
-0.421770 -0.018554 0.061471
-0.481028 -0.121650 0.003193
-0.363615 -0.039028 0.062454
-0.277132 0.043396 -0.002886
-0.018502 -0.068867 0.013215
0.094219 0.041203 -0.014021
0.088518 -0.025856 -0.040196
0.088659 -0.059995 0.023788
-0.382045 -0.067881 -0.063852
-0.453462 -0.025506 0.061864
-0.302378 -0.045040 0.031973
-0.405610 0.058865 -0.054093
0.349439 0.035041 -0.019810
-0.479142 -0.156108 0.060914
-0.244458 0.012175 0.034541
-0.369569 -0.073103 0.063862
0.180247 -0.007470 0.038652
-0.143000 0.011390 0.035309
-0.421136 -0.204102 -0.056539
-0.444600 -0.128755 -0.062435
0.204688 0.023033 -0.030861
-0.300700 -0.002386 0.037542
-0.481028 -0.091914 -0.004175
-0.282410 -0.043197 -0.034303
-0.167937 -0.037604 0.035613
-0.434624 0.048643 0.055335
0.297612 0.007790 0.035920
-0.112208 -0.035684 0.036361
0.233712 -0.047359 -0.032926
0.360019 -0.066233 0.012466
-0.339337 0.085872 0.016824
0.359605 -0.013508 -0.039541
0.082032 0.018512 0.032743
-0.391103 0.051146 0.055039
-0.360978 -0.181316 -0.058904
-0.469913 0.151744 0.034800
-0.413955 -0.108191 -0.063057
0.039883 0.008676 0.036295
-0.193913 -0.027726 0.038031
-0.339336 -0.056993 0.054890
-0.072590 -0.014562 0.039627
0.212716 0.038898 0.015229
0.001807 -0.033211 0.038159
0.357011 0.026217 0.026372
-0.481070 0.106948 0.024479
-0.000711 0.038273 -0.019278
-0.436843 0.122282 0.043542
0.350443 -0.068236 0.009427
-0.381284 -0.018442 0.061463
-0.039019 -0.034915 0.036714
-0.405750 0.196590 -0.013353
-0.408207 0.111095 -0.045893
-0.407685 0.108878 0.046297
0.461505 -0.031688 -0.035424
-0.376673 -0.116333 0.062810
-0.339336 0.102822 -0.004327
-0.310791 -0.006589 -0.039006
0.389544 -0.059928 0.020403
0.498882 0.022231 0.003504
-0.381693 -0.216515 -0.024226
0.088117 0.043454 -0.009041
0.194976 0.004071 0.037018
-0.397604 -0.216163 0.022780
-0.271561 -0.070522 -0.005755
0.010958 -0.058544 -0.026463
-0.462775 -0.171479 -0.059688
-0.470468 -0.181272 0.058908
-0.168586 -0.049041 -0.032115
-0.481028 -0.205019 0.038213
-0.348382 0.154155 -0.033916
-0.152912 0.038020 0.017790
0.183859 -0.065222 -0.018944
-0.181793 -0.065122 -0.020110
-0.371644 -0.028536 -0.062007
-0.481028 -0.192141 -0.013574
0.432660 -0.058103 -0.023111
-0.481028 0.135025 -0.022132
-0.464683 0.036646 0.056753
0.155387 -0.025383 0.038324
-0.424270 -0.010845 0.060943
-0.388464 -0.189573 -0.058359
-0.400473 -0.038700 0.062441
-0.294317 -0.066506 0.014157
0.250386 -0.070033 0.006946
-0.427487 -0.149276 -0.061804
-0.082231 0.026160 -0.029975
-0.339335 -0.162325 -0.006644
-0.435369 0.124420 -0.043026
-0.017281 -0.038248 0.035800
0.493556 -0.017563 -0.031072
0.148934 -0.058095 -0.026308
-0.355780 0.115883 0.044930
-0.341422 -0.091526 -0.063896
-0.287492 -0.006414 -0.039176
0.171145 -0.014255 -0.040399
0.295599 -0.070803 -0.001366
-0.395764 0.188725 0.017920
-0.481028 0.175059 -0.005470
-0.481028 0.174260 0.019192
0.486351 0.029128 0.017345
-0.017789 0.037951 -0.019825
-0.073265 -0.072622 -0.001646
-0.339335 -0.175792 0.018434
-0.339337 -0.074925 -0.017335
0.082196 -0.041205 -0.035988
-0.181021 -0.045522 0.032733
0.396628 0.019211 -0.030770
-0.481028 0.169849 0.024381
-0.471656 0.170164 -0.027282
-0.143848 0.000563 -0.039824
0.376183 -0.043952 -0.033097
-0.087984 0.042996 0.010138
-0.481028 0.119920 -0.042351
-0.277769 -0.070519 0.004236
-0.335832 -0.037505 0.034430
-0.434905 -0.151339 -0.061487
0.105924 -0.038836 -0.036570
-0.190671 -0.058983 0.024194
-0.339336 0.134193 -0.040345
-0.131645 0.044938 -0.000844
-0.361059 0.070752 0.052390
-0.195518 0.024758 0.028936
0.172908 -0.058815 0.024290
-0.465437 -0.202562 0.056604
0.376354 0.041975 -0.001647
0.458082 0.037921 0.010623
0.104184 -0.062627 -0.022527
0.133270 -0.035247 -0.037483
0.372272 -0.022971 0.036843
0.159643 -0.027194 0.038137
0.385286 0.028827 0.023576
-0.436650 0.014663 -0.058944
0.225043 -0.060370 0.023520
-0.051389 -0.051059 0.030292
0.377102 -0.057970 0.022353
-0.420370 -0.110663 -0.062982
-0.470390 -0.112866 -0.063523
-0.406033 -0.091895 0.063298
-0.447637 0.213253 0.002370
-0.395417 -0.118937 -0.062728
0.393914 -0.026982 0.036260
-0.481070 0.068790 0.036019
-0.339337 -0.124770 0.021275
-0.356937 -0.087730 0.063321
0.435011 -0.022438 -0.037817
-0.500000 0.018843 -0.005647
0.065768 0.038425 0.017662
-0.054745 -0.007381 -0.040304
-0.339337 -0.186504 -0.040347
-0.481028 -0.190338 -0.022955
-0.210480 -0.028960 -0.038978
-0.339336 -0.040376 0.060304
-0.004039 0.000691 0.038452
0.163777 -0.010310 -0.040168
-0.381785 0.077041 0.051489
-0.075865 -0.054160 0.028616
0.019913 0.021350 0.031289
-0.500000 0.005151 0.009791
-0.280286 0.042981 -0.004849
-0.218018 0.015364 -0.034954
-0.456597 0.110707 0.045971
-0.481028 0.113350 -0.003599
0.371668 -0.036593 -0.035304
0.158684 -0.028683 0.038009
0.296173 -0.069197 -0.009656
-0.481028 -0.113447 -0.043446
-0.191513 -0.040242 -0.035905
-0.407312 -0.010240 0.060901
-0.105843 -0.021047 -0.040751
-0.448617 0.198556 -0.012168
0.372090 0.021330 0.029526
-0.487979 -0.015787 0.036386
-0.371057 -0.216129 0.028105
0.243832 -0.071256 -0.002360
-0.242866 -0.067884 -0.014045
-0.458729 -0.216253 0.008198
-0.339337 0.186155 0.007554
0.481399 -0.051601 -0.025517
-0.339337 -0.165335 0.005528
-0.433441 0.198170 -0.012401
-0.339335 -0.187458 0.028823
-0.427539 0.066516 -0.052996
-0.383115 0.052549 -0.054873
0.107979 0.005552 -0.038148
-0.360198 -0.013742 -0.061142
0.125642 0.010583 -0.036679
0.494969 -0.011849 0.029024
-0.374627 0.201188 0.010547
0.100238 -0.043978 -0.034956
-0.246351 0.040556 0.012738
-0.015400 -0.065434 0.018878
0.309138 0.043156 -0.000492
-0.228982 -0.066003 0.016182
-0.378036 -0.203707 0.056580
-0.389162 0.101491 -0.047542
0.499630 0.001139 0.020193
-0.395232 0.199591 0.011545
0.295910 0.043270 -0.000251
-0.481028 0.169921 0.015661
0.053755 -0.063831 -0.021676
-0.349620 0.057438 0.054297
0.344141 -0.068882 0.006665
0.030710 -0.033804 -0.038175
-0.481028 -0.162547 0.057427
-0.339336 0.195678 -0.002194
-0.339336 0.019188 0.044193
0.389774 -0.021317 0.036811
-0.422189 -0.216266 0.006095
-0.481026 -0.072717 0.008055
0.093599 -0.014324 -0.040707
-0.361303 -0.065414 0.063199
0.308884 0.034058 -0.021355
-0.339438 -0.205142 -0.046413
-0.172082 0.041676 -0.013416
-0.236999 0.039339 -0.015665
-0.346864 -0.088167 0.063318
-0.342069 0.124093 0.043104
-0.096053 -0.059749 0.024101
0.263506 0.042989 -0.004359
-0.481028 0.101914 0.045574
-0.481026 -0.002554 0.052536
0.145666 -0.052839 -0.030121
0.035519 -0.022208 -0.040120
-0.356825 0.103659 0.047176
-0.072177 0.004167 0.037560
-0.425861 -0.198416 -0.057134
0.168406 0.002773 -0.038685
-0.356596 -0.065536 0.063201
-0.467862 0.173868 -0.025594
-0.400793 -0.216567 -0.042982
0.338409 -0.069056 -0.007396
0.193194 -0.051663 -0.031072
0.492173 -0.052458 -0.017844
-0.481029 -0.047879 -0.030589
-0.035373 0.040937 -0.014857
-0.366861 -0.069845 0.063282
-0.410354 -0.056712 0.063026
0.066473 -0.069884 -0.012616
-0.363208 -0.058088 0.063060
-0.339220 -0.020084 -0.059412
0.295628 -0.020292 -0.038998
-0.481028 0.130410 0.016282
0.311141 0.018497 0.031082
-0.293478 -0.042860 0.033202
-0.352432 -0.214401 0.050071
-0.142109 -0.072468 -0.001003
-0.439138 0.118336 -0.044439
-0.072651 -0.066160 0.018655
0.377605 -0.069248 0.002151
-0.448612 -0.142470 0.061699
0.055970 0.034456 0.022446
-0.428044 -0.025856 -0.061879
0.272093 0.033284 -0.022524
0.405920 -0.009374 0.036895
-0.489940 0.037878 0.010457
-0.481028 -0.071771 -0.041596
-0.013737 0.023913 0.029990
0.484115 -0.061459 -0.013278
-0.206116 -0.008194 0.039062
-0.500000 0.000314 -0.006110
-0.314493 -0.068725 0.010085
-0.481028 0.161904 0.027210
0.260141 0.012838 0.034040
-0.368852 0.014648 0.058951
-0.044753 -0.047579 0.032106
0.387864 -0.055555 -0.025486
0.187541 -0.047565 -0.032597
-0.362047 -0.122607 0.062621
0.294442 -0.012370 0.038295
-0.410970 -0.143165 -0.061644
-0.428410 -0.004527 0.060511
-0.339332 -0.074654 0.016244
-0.342079 -0.212084 0.010177
-0.087150 0.032280 0.024000
0.331219 0.022368 -0.029969
0.323886 0.001175 0.036763
-0.243546 -0.002125 -0.039114
-0.383090 -0.076414 0.063384
0.231413 0.011563 -0.035813
-0.478899 -0.195578 0.057782
-0.480021 -0.208222 -0.032335
0.028525 0.027576 0.028118
0.158197 -0.030034 0.037681
-0.135932 0.031046 0.024849
0.280209 -0.065925 -0.016596
-0.481028 0.144851 -0.024287
0.327147 0.007762 0.034866
0.479928 0.023070 0.026203
0.290643 -0.040396 -0.034961
-0.478123 0.117663 -0.044671
-0.339336 -0.097887 -0.048943
-0.359403 0.032398 -0.057255
0.081967 0.042211 -0.012468
-0.459494 -0.003215 -0.060421
0.044475 -0.042813 -0.036184
-0.339337 0.047937 -0.032536
-0.402750 0.093328 0.048916
-0.045561 -0.055988 -0.028716
-0.419480 -0.096488 -0.063272
0.154724 0.013694 0.034516
-0.257813 -0.064984 -0.019151
-0.481025 -0.126350 -0.020453
0.280300 -0.048608 -0.031249
-0.339337 -0.041717 -0.045629
0.423450 -0.016753 -0.037974
-0.435116 -0.142044 0.061708
-0.063154 -0.069177 -0.013737
0.378173 0.028853 0.023672
-0.122974 -0.046133 -0.033833
-0.346901 -0.054769 0.063016
-0.383922 -0.047735 0.062775
-0.447221 -0.009250 -0.060834
0.306286 0.042232 0.004516
0.474410 0.015122 -0.031690
-0.175452 0.043167 0.007699
-0.481028 -0.160898 0.007944
-0.475693 -0.030635 0.062088
-0.423332 0.048471 -0.055356
-0.481028 0.036601 -0.027563
-0.339336 0.081582 -0.032522
-0.211554 -0.038961 -0.036144
-0.144012 0.024684 -0.030515
-0.452332 -0.103491 0.064089
-0.172440 -0.069620 0.011048
-0.284432 -0.015689 -0.039695
-0.363787 -0.198706 -0.057103
0.377595 -0.018965 -0.038314
-0.394278 0.106062 -0.046772
-0.363962 -0.186880 0.058339
-0.500000 -0.016423 0.015307
-0.496345 0.039939 0.002184
-0.481028 0.139917 -0.031670
-0.306494 -0.036167 -0.036227
0.381129 -0.063263 -0.017961
-0.234366 0.044084 0.000383
-0.481028 -0.147866 0.060365
-0.339336 -0.196416 0.053038
0.275239 0.017141 0.032152
-0.247886 -0.017463 0.038651
-0.474651 0.016401 0.058782
-0.429583 -0.174252 -0.059468
0.015393 -0.000669 0.039394
0.049379 -0.035898 0.036394
-0.396686 -0.152621 -0.061730
-0.268728 -0.028888 0.037443
0.326148 0.013659 -0.034376
-0.393338 -0.088547 -0.063317
0.028886 -0.031649 -0.039367
-0.339334 -0.156078 0.046054
-0.440530 0.194744 -0.014466
-0.302440 -0.044312 -0.033524
0.098578 -0.029795 -0.039153
-0.048593 -0.046178 0.032855
-0.323999 -0.069638 -0.007143
0.072699 -0.043939 -0.035701
0.386024 -0.068984 0.002861
-0.354282 -0.214051 -0.051863
-0.189784 0.044493 -0.001365
-0.481028 -0.078409 0.051517
0.185480 -0.055976 0.026692
-0.192573 -0.068164 0.013163
0.225923 0.042313 -0.010047
0.157187 0.006405 -0.037727
-0.368415 0.009467 0.059415
0.348138 0.005405 0.035300
-0.174094 0.033632 -0.023500
-0.031119 -0.041726 -0.036541
0.127808 0.012096 -0.036245
0.477782 -0.066619 -0.005484
0.313979 -0.020349 0.037680
0.411402 -0.030701 0.035214
-0.435744 0.150269 0.035341
-0.004375 0.035211 0.021519
-0.436295 0.058096 0.054222
-0.339336 0.084934 -0.027940
-0.481028 -0.161752 0.032448
0.180128 -0.053093 0.028590
-0.339220 -0.099263 -0.004203
0.422307 -0.041786 -0.033008
0.438412 0.036028 -0.015555
0.373297 -0.050660 0.027905
-0.035936 0.030869 -0.026527
0.136383 0.038604 -0.017925
-0.382050 0.185795 -0.019538
-0.368361 -0.129966 -0.062364
0.133373 -0.018899 -0.040170
-0.441103 -0.138216 0.062808
0.125116 -0.071853 -0.003998
-0.386339 -0.131343 0.063183
-0.465578 -0.216257 0.007403
-0.068370 -0.049886 0.030864
0.027418 -0.071367 0.007172
0.470170 0.032641 -0.019644
0.353579 -0.007557 -0.038463
0.489366 -0.033059 0.029600
-0.387597 -0.204522 0.056476
-0.339337 0.014964 -0.055425
-0.083907 -0.001226 -0.039717
-0.274697 -0.013704 -0.039933
-0.328178 0.033887 -0.021570
-0.357466 -0.203519 -0.056600
-0.432944 0.072228 -0.052178
0.479965 -0.013985 -0.036842
-0.356009 0.196086 0.013658
0.229642 -0.010308 -0.039791
-0.229643 -0.011604 -0.040045
-0.450556 -0.148430 -0.061354
-0.201237 -0.049054 -0.032502
-0.426921 -0.216490 -0.030546
0.007124 -0.024606 -0.039937
0.404846 -0.067928 0.006683
0.481723 0.038407 0.001261
0.444537 0.038423 0.010236
-0.423993 0.074915 -0.051794
0.332442 0.011289 -0.034977
-0.471525 0.092897 -0.048989
0.165956 -0.046910 0.031928
-0.202773 0.033054 0.022588
-0.368980 0.103633 -0.047181
-0.403794 -0.080089 0.063364
0.355880 0.032542 0.021345
-0.387527 -0.213663 0.051234
-0.031475 -0.004834 0.038936
-0.004156 -0.051655 -0.031562
-0.348320 -0.013881 -0.061151
0.301377 0.042472 -0.004746
-0.499981 -0.056497 0.014265
0.059099 -0.064870 -0.020747
-0.440541 -0.108215 0.063059
-0.500000 -0.025217 -0.023713
-0.028244 -0.017413 -0.040587
-0.481006 0.041596 -0.018259
0.464531 0.006390 -0.034728
-0.118786 -0.042698 0.034354
0.410853 -0.005465 -0.037648
0.461180 0.036821 0.012331
-0.429612 -0.207326 -0.056718
0.007563 -0.068627 0.014011
-0.432694 0.132453 0.040955
0.379915 -0.026139 0.036479
-0.012013 -0.013776 -0.040927
-0.423892 0.052677 -0.055467
0.378966 -0.022726 -0.037962
0.270922 -0.040772 -0.035630
-0.224808 0.039390 0.014598
0.425382 -0.026438 0.035913
0.492472 -0.002915 -0.031135
0.291798 0.021147 -0.031054
-0.066933 -0.070616 0.010190
-0.160442 0.008249 -0.037299
-0.176483 -0.052127 -0.031136
0.471862 -0.067353 0.003252
0.469175 -0.058906 0.019719
0.376874 -0.009765 0.037255
-0.339337 0.057697 0.003872
-0.357249 -0.094128 -0.063286
-0.481028 0.065655 0.012747
-0.062146 -0.038674 0.035630
0.312162 -0.063842 -0.018842
0.130698 0.001615 -0.039194
-0.203806 -0.021971 -0.039658
-0.444649 -0.019914 0.061564
-0.344833 0.151228 0.034989
-0.372282 -0.137512 -0.061955
-0.339990 -0.206930 -0.036450
-0.431889 0.044353 -0.055842
-0.481028 -0.035892 0.059255
-0.399039 -0.216145 0.025756
-0.339332 0.158545 0.014335
-0.004195 -0.011915 -0.040750
-0.406315 0.014330 0.058975
-0.327597 0.021825 -0.030582
0.332175 -0.035942 -0.036387
0.346275 -0.032812 0.035379
0.456090 -0.009848 0.036659
-0.348318 -0.105161 -0.063148
-0.130304 -0.018893 -0.040252
-0.370251 0.117353 0.044634
-0.290510 0.021153 -0.031306
-0.339336 0.102083 -0.005853
-0.453965 -0.216761 0.040263
-0.114432 -0.028261 0.038299
-0.396801 -0.096162 -0.063274
-0.284685 0.041389 -0.011412
0.310734 0.042935 -0.001771
0.158075 -0.013201 -0.040460
-0.015692 -0.002479 0.038741
-0.393031 0.114924 0.045124
-0.463437 -0.214965 -0.050482
0.365005 0.020142 0.029552
0.279295 -0.026805 -0.038544
-0.385221 -0.216571 -0.043304
0.218415 -0.012365 0.038874
0.285404 -0.071067 -0.000542
-0.382287 0.128928 0.041939
-0.148493 -0.069767 0.011020
-0.339337 -0.166320 0.059713
-0.468700 -0.216361 -0.009452
0.236283 0.029139 -0.026677
0.276101 -0.027336 -0.038522
-0.451552 -0.169717 -0.060430
0.262123 -0.016352 -0.039964
-0.060426 -0.027000 -0.039689
-0.391733 -0.185245 0.058511
0.429156 -0.045004 0.030049
-0.481028 -0.074504 -0.027110
-0.147048 0.018087 0.032791
0.092199 -0.028072 -0.039476
-0.448819 0.131555 0.041209
-0.450505 -0.008470 0.060780
-0.245970 0.000628 0.037686
0.069115 -0.037775 -0.037005
-0.418725 0.027070 -0.057787
0.272210 -0.049135 0.029888
-0.088413 -0.013746 -0.040837
-0.210167 0.043417 0.004892
-0.481028 0.084911 -0.012357
-0.267629 -0.030688 0.036943
-0.157753 -0.039097 0.035578
-0.416028 -0.085023 0.063337
-0.438046 -0.122527 0.063137
-0.339336 0.080465 0.017458
-0.481028 -0.043005 -0.060318
-0.245749 -0.067733 0.013084
-0.397917 -0.184676 0.058573
0.314870 -0.051790 0.028066
-0.481028 0.098521 -0.042624
0.020353 -0.030266 -0.039188
-0.368119 0.022377 -0.058225
-0.069722 0.043743 0.007071
-0.481028 0.174859 -0.001200
0.148266 -0.050060 0.030398
-0.467617 -0.041773 -0.062580
-0.383920 -0.017483 -0.061397
-0.379847 -0.199865 0.056994
-0.173095 0.005645 -0.037988
0.149442 0.021312 0.030987
0.091623 0.043811 -0.007094
-0.172025 -0.055360 -0.028745
-0.432419 0.119873 -0.044123
0.183869 0.039909 -0.015157
-0.003499 -0.071926 0.004543
0.242891 -0.013951 -0.040457
0.431297 0.026794 0.024475
-0.481029 -0.172793 -0.005855
-0.354074 0.113501 0.045410
-0.089967 -0.070489 0.010330
-0.367504 -0.118036 0.062759
-0.418920 -0.192044 0.057799
0.008852 0.018918 0.032669
-0.390028 -0.210715 -0.055456
0.118043 -0.049474 0.030837
-0.481025 0.065457 0.010009
0.043106 -0.001901 0.038631
-0.399667 0.147847 0.036228
-0.023812 -0.037832 0.035909
-0.353749 -0.013435 0.061120
-0.227392 0.021703 -0.031568
-0.121427 0.034690 -0.022854
-0.411020 -0.117467 0.062776
-0.339332 0.155491 -0.028192
-0.111312 -0.022427 -0.040001
0.198995 -0.048022 -0.032705
0.071402 -0.050854 -0.031479
-0.340833 0.053468 -0.055040
0.457955 0.021281 -0.028725
0.145886 -0.043878 0.034146
-0.481026 -0.080271 -0.016151
-0.470772 -0.141911 0.061712
-0.450099 0.033119 0.058029
-0.443531 -0.119295 0.062721
0.183666 -0.070243 0.009088
-0.383225 -0.122308 0.062630
-0.489914 -0.057984 -0.021753
-0.430118 0.020559 0.058394
0.279313 0.028367 -0.026803
0.141983 -0.025107 -0.039571
-0.087656 -0.048775 -0.033020
-0.410919 -0.216175 0.021036
0.356925 -0.036072 -0.035506
-0.410367 -0.172726 -0.060188
-0.345523 0.145394 0.037021
-0.414018 0.088311 0.049763
0.272340 -0.065916 -0.016252
-0.481016 -0.078814 -0.063293
0.159852 -0.012406 -0.040378
-0.042397 0.017520 -0.034845
-0.031605 0.024134 0.029943
-0.264482 -0.057926 -0.025580
-0.071508 0.043494 -0.009511
-0.394305 0.175987 0.024576
0.106854 -0.063820 0.020287
0.265884 -0.062508 -0.021182
-0.123230 -0.066996 -0.016975
0.500001 -0.003447 0.002959
-0.083763 0.038560 -0.018627
0.128961 -0.020433 0.038870
0.157784 0.033943 0.021987
-0.369953 -0.216580 -0.045125
-0.176488 -0.009737 -0.040181
-0.376128 0.010664 -0.059318
-0.500000 -0.056723 -0.002317
-0.362891 0.117361 0.044633
0.367045 0.006881 -0.035839
-0.287243 -0.068552 0.010935
0.443446 0.027823 0.023311
-0.057580 -0.060518 0.023502
-0.146922 0.036115 0.020278
-0.432511 -0.170292 0.059783
-0.393777 0.215670 -0.001282
-0.339337 -0.067070 0.025063
0.497675 0.017374 -0.016822
-0.394880 -0.202734 -0.056682
0.241352 0.037562 0.016949
0.383181 -0.064390 -0.016050
-0.500002 -0.013564 -0.015420
-0.339338 -0.143716 0.057987
-0.345306 -0.003837 0.060464
-0.481028 0.118098 0.014624
-0.397272 -0.176332 -0.059303
-0.368962 -0.167931 0.059972
-0.164442 -0.002515 -0.039583
-0.424042 0.128749 0.041982
-0.148535 0.017202 -0.034979
-0.470808 -0.102296 0.063298
-0.025898 -0.069409 0.012300
-0.108139 0.032836 -0.024577
0.077158 -0.064086 0.020217
-0.403223 0.088494 0.049733
-0.249061 -0.068509 0.011755
-0.339337 -0.186348 -0.048198
0.424153 -0.031732 -0.035916
-0.443630 0.048447 -0.055358
0.132263 0.037868 -0.019176
-0.485551 -0.061973 -0.017546
-0.492655 -0.065426 0.010790
-0.363274 -0.126799 0.062494
-0.464003 0.026850 0.057810
0.284750 -0.012181 0.038363
-0.435027 -0.216040 0.043263
-0.388400 -0.208854 -0.055662
0.141774 -0.070619 0.008796
-0.339311 -0.159530 -0.033008
-0.472726 -0.122941 -0.062610
0.235349 -0.066966 0.014565
-0.339335 -0.091176 -0.054531
0.012592 -0.064086 0.020365
0.445366 -0.057287 -0.022791
-0.481028 0.047115 0.042288
0.350221 -0.025449 -0.038013
-0.248346 -0.064275 -0.019909
0.002350 0.028629 0.027360
0.091357 0.037588 -0.020002
-0.398601 -0.110212 0.063510
-0.418323 0.157289 -0.032756
-0.500000 -0.009384 0.005703
0.449577 -0.061755 -0.018294
-0.481028 -0.174025 0.052242
-0.238008 0.003645 0.036994
-0.479299 -0.210178 -0.024852
-0.360084 -0.047672 -0.062833
0.025894 0.026331 0.028770
-0.481028 0.119372 0.025195
-0.481029 0.186598 0.016136
-0.416118 0.184118 -0.020462
-0.339336 -0.020725 0.041807
0.311775 -0.053628 0.027139
0.273787 -0.069257 -0.010706
-0.079331 0.040366 0.014498
-0.018410 0.030390 0.025809
0.388831 -0.067809 0.008730
-0.393387 -0.045127 0.062721
-0.364776 -0.086141 -0.063619
-0.326481 0.036505 0.017425
-0.500004 -0.055594 0.018838
-0.154764 -0.051307 -0.030987
-0.052594 -0.049476 0.031121
-0.489698 -0.065611 0.010252
-0.041726 -0.049198 -0.032429
0.070892 0.015806 0.034211
-0.496144 -0.043650 -0.031250
-0.460822 -0.188660 -0.058153
0.466567 0.005720 0.033724
-0.472021 0.094517 0.048716
-0.373521 -0.093474 -0.063289
-0.098844 0.015003 0.034450
-0.481013 -0.150713 0.061124
0.403732 -0.066813 0.010288
0.027306 0.043244 -0.010981
-0.176977 0.024960 0.029056
0.486616 -0.046009 0.025486
-0.339337 -0.167289 0.041251
-0.421623 0.017976 -0.058635
0.089642 -0.069584 0.011630
-0.126238 0.015379 -0.035409
-0.346880 0.043506 -0.055942
-0.357868 0.039296 0.056440
0.055814 -0.014120 -0.040826
0.201320 -0.000467 0.037902
-0.479995 0.097249 -0.048866
-0.402123 0.091439 0.049241
0.218740 -0.067755 -0.014211
-0.199863 -0.036119 0.035853
0.134078 -0.071666 0.003571
0.211903 0.013616 0.034187
-0.469756 -0.020935 0.062503
0.070372 -0.023176 0.038825
-0.372064 0.115512 -0.045005
-0.356660 0.154909 -0.033640
-0.481029 0.066135 -0.034166
0.196585 0.018704 0.032020
-0.026514 -0.040730 -0.036828
-0.481028 0.042738 -0.013101
-0.481031 0.161990 0.007542
-0.391130 0.199242 0.011756
-0.105253 -0.053639 -0.029978
-0.481028 0.164531 -0.010809
0.009003 0.011169 -0.036795
-0.144441 0.043241 -0.009300
-0.010836 -0.063086 0.021300
-0.270550 0.036881 -0.019131
-0.481028 0.081957 0.013549
0.050554 0.042576 -0.012034
0.067192 -0.025110 0.038658
0.460910 -0.031015 0.034456
-0.441751 0.134290 0.040437
-0.481028 -0.051484 0.046832
0.047849 0.002083 0.038153
0.421389 0.014793 0.031531
-0.314534 -0.061472 -0.021773
-0.339337 -0.146467 -0.060682
-0.452204 0.014688 -0.058942
-0.493284 -0.035359 -0.034283
0.136829 0.016170 -0.034900
-0.404574 -0.122753 0.062617
-0.362815 0.072235 0.052177
-0.240058 -0.003349 0.038078
0.423793 -0.061238 -0.019719
-0.339336 0.040385 -0.043423
-0.076867 -0.020413 0.039096
-0.341052 -0.092392 0.063295
0.351613 0.033038 -0.021564
0.017503 -0.064768 -0.020915
-0.416929 -0.167427 -0.060012
0.456602 0.008028 -0.034372
-0.391115 0.179941 0.022588
-0.339337 -0.142756 -0.002284
0.212063 -0.051784 0.029046
-0.201272 0.040983 0.012321
-0.415505 0.147746 -0.036262
0.260724 -0.033001 -0.037308
-0.175014 -0.005167 -0.039779
0.204645 0.036810 0.018788
0.195182 0.010858 0.035069
0.255853 0.037990 0.015945
-0.339337 0.010872 -0.054610
0.098366 0.011002 -0.036660
-0.481028 -0.161785 0.034258
-0.481013 -0.186932 0.051317
-0.497862 0.028934 -0.022871
0.432233 -0.025136 0.035944
0.022965 -0.062958 0.021350
0.298892 0.011062 -0.035376
0.321699 -0.038505 0.034041
0.500001 0.012884 -0.008699
-0.394202 -0.102935 0.063216
-0.368148 -0.071429 -0.063313
-0.474565 -0.186595 -0.058370
0.369754 0.003119 0.035707
-0.286645 -0.020166 0.038109
-0.292395 -0.019320 0.038139
-0.222577 -0.069050 0.011257
-0.394953 -0.216527 -0.036433
-0.352942 0.050695 -0.055092
-0.336378 -0.022139 0.037534
0.443759 -0.031890 -0.035606
0.021697 0.026590 -0.029803
0.275066 0.039742 -0.014846
-0.489796 -0.058727 0.019928
-0.040822 0.039198 -0.017703
0.484216 0.035999 -0.009579
-0.240210 -0.028642 -0.038849
-0.423816 0.211092 0.003934
-0.431903 0.032234 -0.057274
-0.191781 -0.007163 -0.039862
-0.396722 0.193007 0.015513
-0.223364 0.040352 0.013035
0.040901 0.006148 0.037009
-0.436298 0.176867 -0.024228
-0.285584 -0.066453 -0.016134
-0.445299 0.135336 0.040143
0.406764 0.007778 0.033951
-0.339335 0.092024 -0.049032
0.028603 0.011986 -0.036540
-0.481028 -0.104852 -0.059903
-0.447565 -0.118629 0.063255
0.109988 -0.070814 0.009194
-0.470904 -0.119775 0.062709
0.329256 0.018732 0.030750
0.258712 0.000974 0.037384
0.337081 -0.067476 0.011030
-0.339337 0.140349 -0.034301
0.331727 -0.006878 0.037461
-0.339336 -0.123479 0.000752
-0.229940 -0.040885 -0.035484
0.459435 -0.064439 0.012382
-0.208652 -0.025854 -0.039280
-0.452056 0.197204 0.012984
-0.132462 -0.015837 -0.040519
0.416461 -0.062050 -0.019829
-0.422246 0.168444 -0.028062
-0.024790 0.042779 -0.011849
-0.335648 -0.048218 0.029974
-0.339337 -0.048800 0.051298
-0.481028 -0.067586 -0.025417
-0.421222 -0.101076 -0.063533
0.447516 0.024952 -0.026948
-0.481028 -0.085696 -0.030969
-0.408920 0.152459 0.034559
-0.339337 0.039324 0.053330
-0.011733 0.032622 -0.025001
-0.491930 -0.010182 0.036188
-0.455462 0.106013 0.046781
-0.481027 -0.039331 -0.056078
-0.339336 0.104858 -0.031522
-0.360032 0.108744 0.046320
-0.127632 -0.059369 -0.025428
-0.477903 -0.024267 0.061810
-0.465619 -0.216132 0.027988
0.068803 -0.024542 0.038706
-0.339337 -0.181729 0.034716
-0.468388 -0.214199 -0.051644
-0.467329 0.149098 -0.035770
0.248640 0.039116 0.014238
-0.159600 0.037918 0.017899
-0.339337 0.082271 0.034546
-0.077358 0.044595 0.002588
-0.269969 -0.031747 -0.037790
-0.458910 -0.038253 -0.062422
0.010222 -0.064187 0.020281
0.105429 -0.037158 -0.037155
-0.339319 0.145371 -0.018939
-0.166498 0.036928 0.019427
-0.445439 0.057097 0.055198
0.108689 0.043994 0.006180
-0.483455 0.016301 -0.031311
0.360925 -0.015110 -0.038832
-0.060975 0.041967 0.011913
-0.441948 -0.164319 0.060260
0.193419 -0.037369 0.035394
-0.115153 -0.071690 0.004570
-0.339336 -0.182112 -0.050456
-0.199752 -0.019373 -0.039914
0.393460 0.012468 -0.033968
-0.481005 -0.092276 -0.047701
-0.339495 -0.204778 0.045226
-0.408357 -0.006686 -0.060659
-0.481028 0.023702 -0.044207
-0.042979 0.039706 -0.016857
-0.141509 -0.051726 0.029659
-0.481026 0.003120 0.042688
-0.481031 0.115654 0.007442
0.236955 -0.066043 -0.016793
0.212770 0.040028 0.013367
-0.467581 0.081898 0.050784
0.058624 -0.044700 0.033560
-0.301015 0.016870 -0.033443
-0.415640 0.144719 0.037241
-0.024988 -0.038715 0.035658
-0.365251 0.010829 0.059302
-0.329930 0.038609 -0.015053
-0.159919 0.019642 0.031921
0.136878 0.021869 0.030751
-0.220490 -0.029300 0.037654
0.448357 0.018828 0.028994
-0.075353 0.036054 -0.022446
-0.313893 -0.064979 0.017633
0.052101 0.030752 -0.026544
-0.342236 0.180626 0.022246
0.229784 -0.056939 0.025423
0.386391 -0.053107 -0.028172
0.111465 0.044189 0.003452
-0.174885 -0.039673 0.035959
0.183330 0.006143 -0.037641
0.127476 0.005491 -0.038111
-0.174436 -0.009117 0.038971
0.058547 -0.011706 0.040024
-0.292874 0.043552 -0.001124
0.460277 -0.052848 0.025267
0.299104 -0.069398 -0.008440
-0.410564 0.078397 0.051295
-0.450811 -0.164667 -0.060234
-0.337713 0.033372 0.020737
0.395806 -0.007022 0.036811
0.101943 0.031555 -0.025616
0.122670 -0.070873 -0.011610
0.256659 -0.051458 -0.029994
-0.470557 -0.046643 -0.062782
-0.450928 0.150833 -0.035134
-0.500000 0.002829 -0.024528
-0.099660 -0.049040 -0.032412
-0.372294 -0.067322 0.063238
0.390604 0.041235 -0.004372
0.030933 0.009634 -0.037201
-0.500000 -0.042615 -0.029009
-0.339336 -0.118148 0.004903
-0.180006 -0.015451 0.039202
-0.481028 -0.136227 -0.058794
-0.046386 0.009846 -0.037152
-0.317602 0.041542 -0.010033
0.187393 -0.066581 -0.016655
0.024533 -0.009310 0.039318
0.023980 0.045002 0.000739
-0.446643 0.014344 0.058973
-0.273548 -0.027165 0.037586
-0.339337 -0.201570 -0.014168
-0.431811 -0.206792 -0.056233
-0.428425 -0.027489 -0.061950
-0.438295 0.200348 0.011090
-0.468643 0.117978 0.045355
0.116039 0.023480 -0.031162
0.491906 0.027067 -0.015790
-0.109172 -0.011153 -0.040544
-0.396108 -0.216898 0.017573
0.166286 0.022393 0.030305
-0.139554 -0.012073 -0.040522
-0.374415 -0.155848 0.060935
0.073115 -0.048688 0.031440
-0.339336 -0.050267 0.039180
-0.424314 -0.030315 -0.062074
-0.492611 -0.008869 -0.037228
-0.481148 0.100009 0.047096
0.105879 -0.072086 -0.007064
-0.397289 -0.216098 0.033401
-0.473274 0.045673 -0.055686
0.043188 -0.053046 -0.030379
-0.339337 -0.089173 0.028558
-0.213573 0.041599 0.011124
0.464203 -0.036629 -0.034009
0.404333 0.025930 -0.026971
-0.430246 -0.100834 -0.063247
-0.467632 -0.034395 -0.062253
0.143095 0.040531 0.013526
0.317394 -0.060994 -0.022516
-0.278382 -0.037906 0.034811
-0.481028 0.160032 -0.025958
0.366695 0.023953 -0.028682
0.415378 0.035614 0.015816
-0.380755 -0.119951 0.062701
0.336331 0.022561 0.028636
0.446470 0.039332 0.007792
-0.481028 0.191944 0.000451
-0.339336 -0.035912 -0.057673
-0.481027 -0.112530 -0.054988
-0.330810 -0.040557 -0.034777
-0.237751 -0.070997 -0.005462
-0.033225 0.043885 -0.007818
0.463768 -0.007444 -0.037159
-0.403072 0.085911 -0.050171
-0.234459 -0.056217 0.026246
0.429293 0.039758 0.007233
0.007703 -0.042176 0.034659
-0.436674 -0.061360 -0.063122
-0.430067 -0.086983 0.063325
-0.306682 0.042172 0.006272
-0.415694 -0.026117 -0.061891
0.411020 0.013214 -0.033532
-0.400590 -0.187643 0.058773
-0.280442 0.007944 -0.036623
-0.343041 0.047326 0.055491
-0.196972 0.014030 0.034309
0.462988 -0.067772 -0.003096
-0.446797 -0.154448 0.061024
-0.066341 -0.012750 -0.040774
-0.476146 0.109184 0.046248
-0.394052 -0.098990 -0.063259
-0.433752 0.152693 -0.034452
0.388841 -0.061118 -0.020524
0.173800 0.029283 0.025982
0.283775 -0.066882 0.013257
-0.061549 0.027288 -0.029414
-0.434927 0.164706 -0.029711
0.197197 0.015440 0.033725
-0.445277 -0.024030 0.061800
-0.354790 -0.216561 -0.042005
-0.158234 0.001295 0.038091
0.341041 -0.004634 0.037183
-0.405503 -0.027856 0.061967
-0.411329 0.088928 0.049658
-0.228227 0.018372 -0.033306
-0.152640 0.002524 0.037780
-0.043271 0.043974 0.006107
0.342770 -0.059580 0.021498
-0.481028 -0.161967 -0.038048
-0.468171 0.090944 0.049318
0.272393 0.000220 0.037339
0.047234 -0.024962 -0.039851
-0.482094 0.016635 -0.031156
0.242534 0.042245 0.008327
-0.021717 0.029180 -0.028045
-0.297543 0.042173 0.006819
-0.477749 -0.213469 -0.035453
-0.353714 0.071323 0.052213
-0.481028 -0.202551 0.035446
-0.339319 0.204289 0.004808
-0.426876 0.195290 -0.014138
-0.035080 -0.072559 0.001134
-0.353340 -0.051840 0.062942
0.061958 0.007439 0.036618
-0.453012 0.097633 -0.048802
0.343697 -0.031483 0.035782
-0.358812 -0.192680 -0.057733
-0.441256 0.087252 0.049941
-0.428585 0.192545 0.015792
-0.463880 -0.169812 -0.059822
-0.361741 0.060599 -0.053844
0.249392 0.025882 -0.028999
0.170294 0.043281 0.006312
0.115952 0.026751 0.028286
0.421492 -0.018766 -0.037818
-0.362331 -0.064575 -0.063194
-0.175180 -0.015073 0.039275
-0.364504 0.216556 0.000018
0.048263 0.044398 -0.004808
-0.452195 0.066009 0.053925
-0.090919 -0.030026 0.038033
-0.467732 -0.216182 0.019903
-0.481028 0.079418 0.007942
0.074245 0.013109 -0.036155
-0.083371 -0.062990 -0.022419
0.341419 0.038778 0.012701
-0.009726 0.039023 -0.018066
-0.425397 -0.076433 0.063386
0.369790 0.032996 0.020036
0.155791 -0.013940 0.039350
-0.339336 0.171873 -0.009593
0.307518 0.033801 0.020436
-0.339337 0.133106 -0.039688
0.135499 -0.047152 0.031978
-0.341526 -0.210869 0.007985
-0.485687 0.040509 -0.001414
-0.466849 -0.216039 0.043481
0.208686 0.038049 0.016701
0.498490 -0.013086 -0.026308
-0.111770 0.002112 0.038047
-0.342903 0.065063 0.053204
0.016938 0.040033 -0.016324
-0.467766 -0.057281 0.063044
-0.487290 0.029703 -0.022401
-0.113509 -0.017102 0.039306
0.348534 -0.017198 0.037510
-0.373580 0.149448 0.035666
-0.433399 0.156055 -0.033837
-0.347570 0.156332 0.033119
-0.500000 0.010029 -0.015490
-0.421242 -0.152881 0.061109
0.441660 -0.007279 0.036257
-0.003079 0.030894 -0.026522
-0.457753 0.129430 -0.041808
-0.360810 0.207684 -0.006284
-0.203247 -0.026287 -0.039274
-0.451089 0.146031 0.036816
-0.481028 -0.153526 -0.054145
-0.339336 0.108030 -0.041650
-0.481028 0.129536 -0.041523
-0.481028 -0.195577 0.047599
-0.289997 -0.059433 -0.023907
-0.425670 0.197870 -0.012582
-0.018828 -0.033345 -0.038345
-0.466051 -0.136757 0.062015
-0.339337 -0.184022 -0.052567
0.003580 -0.031264 -0.038927
-0.147557 -0.069724 -0.012264
-0.373064 0.131022 0.041392
-0.342524 -0.212983 0.007649
0.222161 -0.047666 0.031130
0.013910 0.022168 0.030963
-0.353075 0.191000 0.016667
0.057918 -0.057077 -0.027680
-0.350312 0.060346 -0.054488
0.220718 -0.069987 -0.009970
0.370531 0.040539 -0.009554
-0.170126 -0.011741 0.039223
-0.065279 0.041732 -0.013455
-0.445508 -0.214985 -0.050447
0.472386 0.029042 -0.022801
-0.066078 0.044832 0.001459
0.392672 -0.069352 -0.001602
-0.416107 0.071102 -0.052339
0.499042 -0.010938 0.024021
0.227600 -0.002674 0.037951
-0.339336 0.189897 -0.001791
-0.449268 -0.019665 -0.061547
-0.339337 0.114550 0.019188
-0.470655 0.080265 0.051886
0.188275 -0.051303 -0.030634
-0.455267 -0.081686 0.063360
0.114526 0.019900 0.031878
0.296250 -0.043592 0.033546
-0.007089 -0.044254 -0.035053
0.093511 0.044501 -0.003474
-0.182412 -0.035340 -0.037348
-0.465114 0.113333 0.046288
0.078557 0.040947 -0.014582
0.086206 -0.039646 0.035248
-0.387346 0.039993 -0.056357
-0.143595 -0.021177 0.038836
-0.339337 -0.159677 0.055513
-0.288981 0.039288 -0.014783
-0.477678 -0.213560 0.004932
-0.443081 0.197550 0.012800
0.327365 0.002534 0.036341
-0.008782 -0.072002 0.004194
-0.032281 0.034514 -0.023282
0.409734 0.041168 0.001791
0.289228 0.029008 -0.026103
0.123485 -0.003137 0.039362
-0.020806 -0.051182 -0.031988
-0.339513 -0.122986 0.062610
-0.339334 0.173881 0.006047
-0.481025 -0.077830 -0.019772
-0.044197 -0.021669 -0.040186
-0.429645 0.029259 -0.057583
-0.105772 -0.011093 -0.040551
-0.010633 -0.040515 -0.036329
0.010162 -0.056448 -0.028400
0.438648 -0.022767 -0.037348
-0.449217 0.115665 0.044976
0.067104 -0.024385 -0.040228
-0.437324 0.110038 0.046101
-0.339336 0.121330 -0.009223
-0.339337 -0.192360 -0.004685
-0.435844 0.109092 -0.046261
-0.099729 -0.056294 0.027154
-0.227944 -0.031050 -0.038869
-0.142935 0.026398 0.028457
-0.309250 -0.019875 0.037954
-0.149457 -0.057446 -0.027022
-0.355048 -0.046917 -0.062800
0.419682 -0.057517 -0.023114
0.445666 -0.057134 0.021755
-0.481028 -0.185178 -0.029947
-0.481028 0.053262 -0.007470
-0.387519 0.094629 -0.048697
0.435340 -0.016768 -0.037823
0.017206 -0.072851 -0.000428
-0.453887 0.186844 0.018958
-0.202032 -0.031539 -0.038301
0.480823 -0.050403 -0.026508
0.475641 0.038743 -0.009219
-0.436731 0.049114 -0.055280
-0.133913 0.014907 -0.035514
-0.439978 0.215863 -0.001109
-0.481031 0.065544 0.046826
-0.401786 -0.216924 0.013366
0.035102 0.038903 -0.018134
-0.365450 0.004339 -0.059904
0.124026 0.037689 -0.019544
-0.128285 -0.035237 0.036428
0.079815 0.038975 -0.017818
-0.431418 0.133768 0.040585
0.327288 -0.066567 0.012789
-0.123577 -0.021374 -0.040053
0.369021 -0.050320 0.028139
-0.447024 0.069469 -0.053017
-0.423224 0.097125 -0.048274
-0.359082 0.142875 0.038196
0.099871 -0.019079 -0.040258
0.442735 -0.042044 0.031386
-0.481028 -0.077045 -0.001058
0.339133 0.042255 -0.003111
-0.275265 -0.065100 -0.018037
-0.125457 -0.016349 0.039332
-0.395711 0.208485 -0.006377
-0.431005 -0.025478 -0.061862
0.215995 0.044017 0.000496
-0.481029 -0.041379 0.048046
0.233239 -0.063938 0.019155
-0.324340 -0.045905 -0.032464
-0.222205 0.038245 0.016522
0.333404 -0.055865 -0.026124
0.495086 0.027775 0.007791
0.475904 0.012186 -0.032933
-0.481028 0.113952 -0.011631
-0.423526 -0.143356 -0.061634
-0.308323 -0.069349 -0.009596
0.153512 -0.045231 -0.034062
-0.040211 0.022970 -0.031706
-0.500001 -0.038195 -0.020926
0.166566 -0.016932 0.039019
-0.474704 0.196365 0.013489
0.144915 -0.071511 0.004096
-0.481032 0.194844 0.013464
0.143957 -0.069014 0.012085
0.353517 -0.042742 -0.033473
0.048333 -0.037835 0.035848
-0.370486 0.182825 0.021137
-0.328350 0.041515 0.008358
-0.386991 0.069734 0.052536
-0.321211 0.036353 -0.019932
-0.371542 0.011180 -0.059269
0.478506 -0.049823 0.026253
-0.339336 -0.105818 0.049485
-0.461105 0.148875 -0.035856
-0.499929 0.040224 0.000366
-0.385168 -0.178498 0.059130
-0.339337 -0.129266 0.039965
-0.481028 -0.177920 0.027255
0.240769 -0.068596 0.011327
-0.420978 0.046085 -0.055637
-0.071206 0.014644 0.034599
-0.345173 -0.015661 -0.061273
0.431241 -0.058205 -0.022337
-0.155405 -0.046228 -0.033644
0.457985 -0.014517 0.036574
-0.481028 0.129226 -0.037132
0.483591 -0.040893 -0.030588
-0.414072 0.036979 0.056713
0.468091 0.028441 -0.024156
-0.359363 -0.044741 0.062705
-0.364344 -0.216393 -0.015478
-0.495942 -0.062981 -0.015550
0.280108 0.038243 -0.016188
-0.081799 0.021929 -0.032192
-0.499997 -0.042090 -0.010247
0.286388 -0.066984 -0.014200
0.481207 0.035902 -0.011935
-0.378336 -0.199566 0.057013
0.499234 0.005667 0.020079
-0.012338 -0.047173 -0.033531
-0.369504 0.088735 -0.049692
-0.024530 -0.042184 -0.035843
-0.349269 0.142682 -0.037900
-0.094857 0.044104 -0.006125
-0.266813 0.042239 -0.009515
-0.339335 -0.070100 0.059205
-0.469659 -0.049167 0.062890
0.055452 0.016477 -0.035049
-0.092724 -0.046404 0.032653
-0.021227 -0.016215 -0.041284
0.341435 0.008271 0.034564
-0.342154 -0.112361 -0.062931
-0.484106 0.033868 0.017237
-0.481028 0.071301 0.001015
-0.287435 -0.068123 -0.012817
-0.226655 0.037837 -0.019283
-0.464155 -0.077701 -0.063377
-0.021072 0.003655 0.037767
-0.476128 0.117603 -0.044585
0.112168 -0.038870 0.036311
-0.500000 0.004074 0.032114
-0.467571 -0.108810 -0.063038
-0.199689 0.030058 0.025278
0.321942 -0.020737 0.037561
-0.375436 -0.132086 0.062265
-0.373456 0.211667 -0.003500
-0.360877 -0.007818 -0.060736
0.370619 -0.048857 0.028884
0.274692 0.043022 -0.003510
0.423031 -0.027541 0.035844
-0.130999 0.030504 -0.026524
-0.397984 -0.087671 -0.063321
-0.117474 -0.018772 0.039142
-0.339337 0.079883 0.043820
-0.173937 0.008411 0.036039
0.052218 -0.067373 -0.017749
-0.339336 -0.116522 0.000692
-0.444024 0.140234 0.038692
0.040165 0.044925 0.001004
-0.481031 -0.095922 0.044243
-0.149916 -0.064787 -0.020377
-0.217358 -0.059590 0.023413
-0.339338 -0.114657 -0.013420
0.209485 -0.023916 -0.039312
0.109988 -0.020773 0.038905
-0.363315 -0.216447 -0.023547
-0.002382 -0.071886 -0.009696
0.363057 -0.050233 0.028261
0.123302 -0.014610 -0.040579
0.355086 -0.028315 0.036539
-0.464879 0.108969 0.046282
-0.150612 0.004558 -0.038379
-0.267691 0.002673 -0.038828
0.318161 -0.070757 0.002604
0.060900 0.044138 -0.006060
0.412497 0.017126 0.030469
-0.481028 0.062431 -0.034166
0.123430 0.039403 0.015560
-0.494707 -0.053247 -0.025867
-0.339337 -0.158379 -0.045292
-0.389260 -0.216573 -0.044765
0.198022 -0.027846 0.038380
-0.158760 0.022169 0.030603
0.202712 -0.030537 0.037269
-0.339337 -0.196938 0.011439
0.023261 -0.065685 0.018394
-0.342415 0.136377 -0.039849
0.488690 -0.062037 0.003984
0.216540 0.013264 0.034258
-0.357472 -0.174793 -0.059425
-0.222073 -0.056797 -0.027012
-0.339132 -0.079753 -0.038082
-0.398159 -0.200057 -0.056962
0.433888 0.009898 -0.034160
0.417582 0.004049 -0.036024
-0.095155 0.000569 0.038374
-0.358685 -0.184466 -0.058592
-0.435825 -0.009321 -0.061442
-0.368229 -0.138508 -0.061899
0.264129 -0.008511 -0.039357
-0.291508 -0.002333 -0.038770
-0.367800 -0.082785 -0.063344
-0.037265 -0.010501 0.039439
-0.394970 0.102267 0.047411
0.458323 0.000723 0.035248
-0.481028 -0.106523 0.000886
-0.339336 -0.194940 0.040377
-0.356653 0.082452 -0.050714
-0.481013 -0.069557 0.057103
-0.394004 0.187917 0.018366
0.491019 -0.048335 -0.022607
-0.481030 -0.163769 0.049514
-0.131566 -0.017924 0.040070
-0.367867 0.040617 0.056805
-0.481028 -0.100052 0.027573
-0.022206 -0.051804 -0.031099
0.244803 -0.019479 0.038313
-0.143829 0.037204 -0.020382
0.482770 -0.056269 -0.020803
0.189226 0.002405 0.037493
0.053312 -0.005343 -0.040094
-0.421713 0.119378 -0.044227
-0.467592 0.086740 -0.050026
0.157806 -0.045604 -0.033838
-0.481028 -0.178041 -0.041781
-0.464009 -0.165614 -0.060452
-0.339336 0.117498 0.026216
-0.451781 -0.121244 -0.062661
-0.067462 0.035397 -0.022432
-0.440197 -0.212898 0.052221
-0.379582 0.115642 0.044978
-0.404741 -0.148039 -0.061476
0.171993 0.031721 0.023830
-0.398725 -0.098284 -0.063262
0.401592 -0.068410 0.004493
-0.481024 -0.033880 -0.043084
-0.481028 0.071772 -0.002155
-0.410939 -0.061040 -0.063112
0.011151 0.032125 -0.025400
-0.499998 -0.015494 -0.000750
-0.326417 0.024393 -0.029250
-0.381932 0.038020 -0.056590
0.441320 -0.044992 -0.031030
-0.481028 -0.161033 -0.014969
-0.481028 -0.144186 0.010947
0.347440 -0.064508 -0.017410
-0.342150 0.115877 0.044932
0.310046 0.015303 -0.034518
-0.413086 -0.216421 -0.019367
-0.404335 -0.133442 0.062177
-0.265877 -0.032009 0.036586
0.312388 -0.058179 -0.024410
0.315518 -0.069535 0.005523
-0.481031 -0.093619 0.010123
-0.275013 0.038406 0.015360
-0.466058 0.034524 -0.057004
0.165706 -0.071180 0.004998
-0.086774 -0.049514 -0.032199
0.002632 0.031605 -0.025878
0.328528 -0.041352 -0.034327
0.237253 -0.040114 -0.035499
-0.296075 0.025584 -0.028930
-0.175673 0.019409 -0.033750
-0.255312 0.017507 0.032399
-0.277286 -0.024164 0.037825
-0.155245 -0.009408 0.039062
-0.442701 -0.106015 -0.063123
-0.453790 0.154416 0.033822
0.146817 0.015617 -0.035148
-0.204719 0.034215 -0.022698
-0.339336 0.111418 0.017090
-0.339266 0.015653 -0.033692
-0.302441 0.010316 0.034597
0.342119 -0.021291 -0.039076
-0.011848 0.003389 -0.039613
-0.370441 -0.113230 0.062809
0.371278 -0.058750 -0.022923
0.011116 -0.025630 -0.039841
-0.458078 0.174904 0.025119
-0.410386 0.128751 0.041987
0.479654 -0.066675 0.001455
-0.333004 0.039763 -0.013080
0.145231 -0.042129 0.034329
-0.172177 -0.041140 0.034598
0.297286 -0.069934 0.004624
-0.424303 -0.209000 -0.055614
-0.481028 -0.123961 0.041079
0.067718 -0.070816 0.009676
-0.345020 -0.052851 0.062960
-0.481028 0.110308 0.011832
0.203028 -0.018106 -0.039873
0.289681 0.041716 -0.009367
-0.173559 0.041183 0.012397
0.329683 -0.005150 0.037327
0.106300 0.041522 -0.013389
-0.373274 0.211151 0.003888
-0.481028 0.043709 -0.036808
-0.404181 -0.212118 -0.053803
-0.227421 0.016440 0.033157
-0.415380 -0.017533 -0.061394
0.051564 -0.049546 -0.032198
-0.351195 -0.012944 0.061087
-0.481013 -0.154948 -0.028790
-0.183332 -0.006199 -0.039825
-0.446060 -0.045006 0.062716
-0.075795 0.019709 0.032196
-0.100032 0.013814 0.034783
-0.447789 -0.011947 -0.061402
0.023338 -0.072667 -0.001635
0.258435 0.029865 0.024577
-0.385451 0.017250 0.059223
0.386205 -0.022687 0.036724
0.012258 0.031569 -0.025892
-0.104114 -0.070484 0.010233
-0.196329 0.036459 0.019615
-0.044947 -0.014730 0.040162
-0.460896 -0.083424 0.063345
-0.481013 -0.130412 0.058870
-0.497820 -0.035150 0.033114
0.247797 -0.041583 0.033828
0.126324 0.009803 0.035730
0.229134 -0.070798 -0.005389
-0.206788 -0.069559 0.010653
-0.055924 -0.006321 -0.040207
-0.388548 0.138535 -0.039240
-0.339337 0.177376 0.013880
0.469755 0.018016 -0.030249
0.100238 -0.072580 -0.000882
-0.481012 -0.120805 0.040222
-0.025761 0.000352 0.038476
0.383479 -0.063246 -0.017927
-0.240701 -0.040281 -0.035592
-0.263730 -0.039400 0.035477
-0.250173 0.027675 -0.028092
-0.229295 -0.012886 -0.040162
0.387813 0.041329 -0.004101
-0.372533 -0.196546 0.057328
-0.405446 0.213029 0.002530
-0.481028 0.138207 -0.032373
-0.481028 -0.003633 -0.056159
-0.131126 -0.070999 -0.009263
-0.339337 -0.098405 0.057026
-0.434816 -0.094470 -0.063283
-0.272907 0.018438 0.031737
-0.420599 -0.178764 -0.059405
-0.197928 -0.000647 -0.039838
-0.014825 -0.055683 -0.029045
0.294849 0.042081 0.007656
-0.445317 -0.067522 -0.063240
0.311952 0.042722 0.001636
-0.421796 0.086731 0.050028
-0.445139 -0.150410 0.061245
0.100777 -0.029081 0.038181
0.190352 -0.071736 0.004696
-0.237841 0.042753 0.007135
0.326515 -0.069773 -0.004595
-0.231713 -0.064781 0.019515
0.053056 -0.025840 -0.039879
0.382096 0.012590 0.032900
0.214603 0.042871 -0.007647
-0.244377 -0.071550 0.000713
0.051933 -0.072085 -0.004402
-0.500000 -0.013487 -0.029464
-0.183742 -0.063494 -0.021413
0.247756 -0.044670 0.032492
-0.276295 0.035794 0.019387
0.287508 -0.007869 -0.039118
-0.244790 0.026681 0.028404
0.475939 0.003852 -0.035282
-0.426976 0.153349 0.034212
-0.223546 -0.032689 -0.037845
-0.226855 0.010872 0.035019
-0.108614 -0.062223 0.021831
-0.365711 -0.000678 0.060249
-0.481026 -0.041152 0.037665
0.195451 -0.031526 0.037031
0.212413 -0.036304 0.035576
0.320339 -0.051813 0.027985
-0.366304 -0.202339 0.056723
0.020738 -0.059885 0.024085
0.146598 -0.047381 0.031810
-0.339335 0.031999 0.026176
-0.402558 0.202855 -0.009452
-0.297119 -0.031420 0.036483
-0.481028 -0.010476 -0.050136
-0.481028 0.031137 0.037009
-0.203588 -0.013640 0.039211
-0.466351 -0.185343 0.058500
-0.457544 0.091473 0.049229
-0.481028 0.039916 -0.043002
0.310901 0.028678 0.024948
-0.454326 0.159996 0.031644
0.262289 0.007615 -0.036664
-0.478370 0.195760 -0.013855
-0.398636 -0.216272 0.005170
0.425072 0.039678 -0.009212
-0.296530 0.006416 0.035751
-0.309907 -0.010798 -0.039390
-0.336020 -0.011321 0.038061
-0.360345 -0.011563 0.060993
-0.368132 0.137700 0.039833
-0.417524 0.028410 -0.057938
0.407553 -0.023020 0.036445
-0.481028 -0.161500 -0.053887
0.080975 -0.034333 -0.037935
-0.450392 -0.185634 0.059374
-0.097778 -0.009566 -0.040441
0.497094 0.015432 -0.019691
-0.112891 -0.056630 0.026781
-0.481028 0.141291 -0.004657
-0.456945 -0.052416 -0.062951
-0.303798 -0.022292 0.037781
-0.470386 -0.216530 -0.036911
0.438359 0.040870 -0.004198
-0.413649 -0.152851 -0.061111
-0.415664 -0.050319 0.062895
0.375345 -0.068906 -0.005264
-0.129425 -0.072371 0.000665
-0.339337 0.030325 0.031330
-0.425109 0.064932 -0.053223
-0.481028 0.126143 0.026064
0.234404 0.001793 -0.038551
-0.383935 -0.022502 -0.061733
-0.293826 -0.000963 -0.038635
-0.468960 -0.216519 -0.035228
-0.467859 -0.215639 0.046985
0.284350 -0.044564 -0.033326
-0.352510 -0.115704 0.062829
-0.339336 -0.182575 0.010603
0.311433 0.031364 0.022553
-0.230579 0.038474 -0.017185
-0.339337 -0.192009 -0.006967
-0.317035 0.023027 0.029443
0.139576 -0.003562 0.038509
0.033175 -0.072515 0.001172
0.166407 0.036408 0.019717
-0.279499 -0.038498 0.034634
-0.464481 0.182196 0.021454
0.090632 0.004582 -0.038514
-0.481024 -0.077478 -0.052124
0.371833 0.021354 -0.030562
-0.450590 -0.110685 0.062982
0.230552 -0.071611 -0.001113
0.335223 0.006804 0.035047
0.277715 0.021405 0.029894
-0.176564 -0.059326 -0.025259
0.423415 -0.044192 0.030565
-0.365068 0.134492 -0.040382
0.193547 0.022484 0.030061
0.033265 0.021386 -0.032511
-0.027879 -0.069876 0.011524
-0.500000 -0.007592 0.006418
-0.426389 -0.069835 -0.063283
-0.422776 0.005075 -0.060446
0.458175 -0.029515 0.034917
-0.469539 0.211758 -0.003430
0.403415 -0.068138 -0.006897
-0.462658 -0.005730 0.060593
-0.481024 -0.066581 -0.052916
-0.388482 -0.009514 0.060852
-0.433352 -0.123166 -0.062604
-0.386116 -0.065802 0.063207
-0.350755 -0.216165 0.022586
-0.002507 -0.039175 0.035532
0.282562 -0.046367 -0.032399
-0.339336 0.055177 -0.006403
-0.342526 -0.213243 -0.040973
-0.386265 0.127351 0.042675
0.154294 -0.052036 0.029328
0.488761 -0.020016 -0.033491
0.209503 -0.004327 0.038204
-0.299600 -0.057828 0.024043
0.159051 -0.022926 0.038524
-0.358421 -0.027087 0.061838
-0.481028 -0.111013 -0.040989
-0.247239 -0.064233 0.018830
0.071565 0.044156 -0.005829
-0.339337 -0.062761 -0.034523
0.021475 -0.030928 -0.038999
-0.312227 -0.063014 0.019266
0.057288 -0.043909 0.033976
-0.047061 0.029935 0.026160
-0.342697 0.129472 0.041796
-0.180547 0.035197 -0.022050
-0.455111 0.119734 0.044156
-0.354177 -0.024478 -0.061819
0.466387 0.036324 -0.014150
-0.479098 0.199513 -0.012211
0.425898 -0.046802 0.029175
0.335156 -0.065905 -0.015900
-0.339336 0.052598 -0.009056
-0.111760 0.028277 0.027447
-0.395062 0.054271 0.054676
0.239530 0.042864 -0.006470
0.223921 -0.049498 0.030159
0.047744 0.024995 -0.030600
-0.481028 -0.181452 -0.002719
-0.282088 -0.052691 -0.029335
-0.197187 0.012428 0.035560
-0.131693 0.021404 -0.032285
0.120382 0.031446 0.024444
-0.267106 0.028251 -0.027380
-0.358164 0.129133 -0.041889
0.061372 -0.014515 0.039616
0.477164 -0.048263 0.027345
0.198278 -0.046257 0.032039
0.433862 -0.022498 -0.037327
-0.447917 0.202350 -0.009782
-0.045016 0.017213 0.033547
0.301949 -0.041189 -0.034639
-0.169805 -0.016010 -0.040376
-0.339337 -0.015032 -0.054532
-0.153962 -0.053598 -0.029791
0.235485 -0.062205 0.020673
-0.281377 -0.025360 -0.038850
0.494666 0.010488 -0.025358
-0.424164 -0.023725 0.061786
-0.351451 0.048728 0.055326
-0.339336 -0.085465 0.032456
-0.089452 0.042044 -0.012868
-0.397437 -0.216173 0.021197
0.233326 -0.025995 -0.039328
-0.470529 -0.217077 -0.011350
-0.390055 0.010094 0.059370
0.227535 -0.004793 0.038495
-0.101529 -0.051253 0.030077
-0.339336 0.099317 0.035084
0.050519 0.031100 -0.026239
-0.339337 -0.116863 -0.041058
0.472557 -0.037409 -0.033657
-0.374913 -0.195446 -0.057445
0.189794 0.041484 0.011320
-0.500000 0.008155 0.018180
-0.399600 0.131676 -0.041786
-0.481028 0.201495 0.002196
0.301933 0.038483 0.014175
-0.481028 0.187472 -0.000110
0.280613 0.043211 0.001005
-0.441741 -0.101341 -0.063245
-0.249287 0.038520 0.015672
-0.400514 0.144410 0.037246
0.496333 -0.015586 0.027782
0.027537 0.040960 -0.014770
0.312258 0.039720 0.011921
-0.377781 -0.012326 0.061045
-0.124445 0.044422 0.002549
-0.189739 0.042879 0.008574
-0.499560 -0.054572 -0.024588
0.499998 -0.025525 0.000791
-0.466390 -0.216440 -0.022273
-0.423504 -0.216269 0.005603
-0.421893 0.054574 0.054634
-0.416646 0.037129 0.056696
0.342214 0.040293 -0.011350
0.344438 -0.052459 0.027334
