0.396370 0.327832 -0.031612 0.751163 -0.481313 -0.451765
-0.182712 -0.289589 0.056642 -0.702801 0.468353 0.535459
0.036843 0.108040 0.091781 0.636039 -0.518837 0.571194
-0.188602 -0.352579 -0.066684 0.780069 -0.602908 -0.167314
-0.025089 -0.045748 -0.096833 0.775985 -0.588436 0.227137
0.137176 0.078815 0.068481 0.797037 -0.579489 -0.170073
0.126863 0.122668 0.098371 -0.697736 0.475134 0.536109
0.347857 0.362181 0.045925 0.594393 0.801790 0.061884
-0.016693 0.122192 0.009034 -0.491076 0.292349 0.820595
-0.213814 -0.421249 -0.073375 0.736737 0.674411 -0.048863
0.143793 0.332843 0.029327 -0.691519 0.477752 0.541807
-0.059539 0.012749 -0.069041 0.213437 -0.099140 -0.971914
-0.209597 -0.296022 -0.099592 0.688690 -0.496898 -0.528014
-0.093649 -0.053860 0.080937 -0.636278 0.520036 -0.569836
-0.067089 0.055727 0.036270 0.105327 -0.157098 0.981950
0.324577 0.378565 0.057234 0.594398 0.801786 0.061888
-0.171046 -0.376853 -0.024150 0.762328 -0.633410 0.132848
0.243083 0.321096 0.127265 -0.532974 -0.745941 0.399388
0.096096 0.142291 0.099532 -0.697607 0.473890 0.537376
-0.347392 -0.339401 0.035820 0.241326 0.901980 0.358042
0.125356 0.031671 -0.001842 0.694184 -0.485438 -0.531467
-0.038050 -0.011790 -0.083967 0.491353 -0.317593 -0.810991
0.244482 0.187649 0.053681 0.494966 -0.302166 -0.814680
-0.037993 -0.107814 0.084582 0.239371 -0.279901 0.929708
-0.297600 -0.392697 0.072616 -0.281648 -0.285360 0.916103
0.165504 0.367783 -0.028295 -0.659765 0.546683 -0.515604
-0.100734 0.008084 -0.001010 -0.494376 0.287817 0.820215
-0.205161 -0.201609 0.042131 -0.508327 0.272804 0.816812
-0.210775 -0.421221 -0.013688 0.899600 -0.382665 0.210444
-0.298401 -0.309021 -0.102479 0.011882 0.794704 -0.606881
0.092847 0.015794 0.079653 -0.696836 0.477661 0.535033
-0.305168 -0.327786 0.054537 -0.609174 0.005839 0.793015
-0.316467 -0.389227 0.002972 -0.594396 -0.801787 -0.061888
0.124413 0.192590 -0.066662 -0.094247 0.143193 -0.985197
0.216380 0.405320 0.114573 -0.686336 -0.720079 0.102124
-0.038708 -0.032533 -0.081707 -0.104636 0.129596 -0.986031
0.102769 0.049942 0.073454 -0.215399 0.075874 0.973574
0.305232 0.256221 0.064115 0.734810 -0.557549 0.386255
0.027122 0.147092 -0.040457 -0.642762 0.517393 -0.564943
0.093909 -0.026584 0.043941 0.707243 -0.572421 0.414899
-0.024470 -0.162270 -0.018790 0.785254 -0.595815 -0.168468
0.212309 0.180487 0.073486 0.778959 -0.587477 0.219304
0.307207 0.311364 0.111235 0.734344 0.326458 0.595117
0.370392 0.310113 -0.021145 -0.416116 -0.896838 -0.150096
-0.173822 -0.366873 -0.024506 0.210008 -0.090638 -0.973489
0.091123 0.120465 -0.092405 0.023118 0.055719 -0.998179
-0.122176 -0.289122 -0.026105 0.681886 -0.501424 -0.532546
-0.201729 -0.360162 0.036515 -0.157701 0.641064 0.751111
0.180237 0.475315 0.014325 -0.606217 0.790560 -0.086691
0.217102 0.416272 -0.047094 -0.711546 -0.659610 -0.242110
0.095250 0.209156 -0.054451 -0.093005 0.142524 -0.985412
0.072571 0.108965 0.109649 -0.102580 -0.004923 0.994713
0.385510 0.334619 0.041371 0.594391 0.801791 0.061886
-0.090441 -0.244785 0.022416 0.092164 -0.161800 0.982510
0.170551 0.407290 -0.014320 -0.595565 0.737405 -0.318647
-0.163821 -0.059770 -0.011847 -0.817976 0.574547 -0.028492
-0.108007 -0.203315 0.073579 0.231109 -0.277392 0.932546
0.065811 0.182901 -0.057501 0.219994 -0.089912 -0.971349
-0.071553 -0.243230 -0.013864 0.211861 -0.088511 -0.973284
-0.200637 -0.326500 0.041051 0.618106 -0.539393 0.571839
0.365455 0.342754 0.128606 0.594394 0.801789 0.061884
-0.080419 -0.195052 0.050661 -0.219506 0.069978 0.973098
-0.006725 0.048243 -0.084646 -0.800457 0.577906 0.159039
-0.023090 -0.183949 -0.003677 -0.211428 0.086413 0.973566
0.239112 0.263119 -0.061983 -0.630501 0.514185 -0.581448
-0.213991 -0.449890 0.007260 0.496808 -0.814771 0.298881
-0.056706 -0.057172 0.075310 -0.500583 0.285992 0.817083
0.277076 0.411607 0.085387 0.594398 0.801786 0.061888
-0.294213 -0.315788 0.045239 0.474910 0.846321 0.241248
-0.024352 0.078046 0.055021 -0.781408 0.586977 -0.211799
-0.337161 -0.322544 -0.053972 -0.722415 0.627377 -0.290715
-0.128526 -0.127246 0.064848 0.393448 -0.373542 0.840039
0.253103 0.246559 -0.040906 0.220500 -0.081518 -0.971975
-0.056115 -0.180106 0.061113 -0.695726 0.479292 0.535018
-0.189607 -0.216291 0.054802 0.086535 -0.176850 0.980426
-0.096039 -0.014787 0.035804 -0.706914 0.458383 0.538663
0.177121 0.298456 -0.069325 -0.703771 0.479643 0.524069
0.234964 0.319561 -0.076439 0.016803 0.081891 -0.996500
0.084222 0.255925 0.043201 -0.637456 0.521432 -0.567238
-0.310643 -0.387138 -0.080022 -0.594401 -0.801784 -0.061888
-0.213373 -0.146802 -0.056010 -0.725690 0.537492 -0.429507
0.205836 0.277943 0.114934 0.777178 -0.590963 0.216234
0.214834 0.230912 0.101506 0.778300 -0.588897 0.217827
0.227676 0.340757 0.133672 -0.575287 -0.550018 0.605413
-0.199610 -0.277112 -0.110678 0.056996 -0.023498 -0.998098
0.208350 0.419067 0.115938 -0.636868 -0.770957 -0.004978
-0.012147 -0.148880 0.024102 0.691132 -0.488266 -0.532853
0.120729 0.200622 0.093827 0.103282 -0.154854 0.982524
0.185258 0.334557 0.110307 -0.706539 -0.319713 -0.631337
-0.201845 -0.161328 -0.080424 -0.482205 0.299628 0.823226
0.107897 0.039783 0.065132 0.793864 -0.583732 -0.170398
0.350186 0.367423 -0.044342 0.594395 0.801788 0.061890
0.183552 0.245200 -0.080712 -0.799553 0.578704 0.160675
-0.047635 -0.053814 0.085551 -0.800526 0.573337 0.174478
-0.245099 -0.321854 0.058125 -0.773013 0.597043 -0.214455
-0.306322 -0.358556 0.048600 0.065720 0.616456 0.784642
-0.139100 -0.105722 -0.074349 0.212452 -0.100111 -0.972030
-0.079128 0.043449 -0.044192 -0.726088 0.540423 -0.425136
0.115561 0.032225 -0.057705 0.396187 -0.356642 0.846075
0.094827 0.185082 -0.070589 -0.774092 0.589873 -0.229850
-0.138859 -0.147363 -0.091797 0.490556 -0.318694 -0.811042
0.370774 0.351825 -0.040007 0.594172 0.801931 0.062174
0.254704 0.422603 0.157799 0.594400 0.801785 0.061886
0.119757 0.294346 -0.001913 -0.774192 0.597679 -0.208341
0.000614 0.108842 -0.070933 0.704178 -0.479233 -0.523899
0.213897 0.205750 0.085644 0.105107 -0.146818 0.983564
-0.368627 -0.326191 -0.049406 -0.819434 0.535156 -0.205274
-0.153288 -0.099333 0.044248 -0.785635 0.581161 -0.212202
0.004666 -0.127914 -0.012137 0.689361 -0.491733 -0.531959
-0.152081 -0.092328 -0.076389 -0.482368 0.299762 0.823082
0.107980 0.299782 0.050768 -0.108653 0.154960 -0.981928
-0.112675 -0.043658 0.040597 -0.807430 0.562909 0.176607
-0.316534 -0.291520 0.003935 -0.806374 0.517454 0.286362
-0.180064 -0.242991 0.072685 0.801705 -0.572272 -0.172550
-0.247459 -0.227480 0.016004 -0.714636 0.447270 0.537815
0.218508 0.180911 0.086385 0.492282 -0.303620 -0.815766
0.054647 0.015133 0.083690 0.771917 -0.597400 0.217388
0.190198 0.433589 0.078003 -0.674735 0.611029 0.413975
0.122487 0.167514 0.114877 -0.071702 -0.025864 0.997091
-0.003065 0.079596 0.068150 -0.495259 0.290867 0.818605
0.161305 0.351350 -0.017080 -0.204427 0.027365 -0.978499
-0.021124 -0.172074 -0.037886 0.392629 -0.363639 0.844754
-0.065095 -0.223676 -0.039663 0.392395 -0.363485 0.844929
-0.083565 -0.241590 -0.020932 0.688351 -0.493338 -0.531781
0.198113 0.252080 -0.068028 0.704147 -0.476311 -0.526598
0.137889 0.072353 -0.040471 0.797132 -0.580655 -0.165590
0.016272 0.090825 0.097618 -0.367566 0.186077 0.911192
-0.140538 -0.127365 0.076268 -0.362017 0.163904 0.917649
0.133811 0.213269 -0.066325 0.218470 -0.089437 -0.971737
-0.020869 0.105070 -0.021664 -0.802324 0.569055 0.180146
-0.137664 -0.252861 0.045273 0.379742 -0.387360 0.840088
-0.015095 -0.153422 -0.014100 0.688216 -0.493229 -0.532057
-0.178827 -0.257843 -0.095387 0.688679 -0.496887 -0.528039
-0.012077 -0.014145 -0.086880 -0.637946 0.502587 -0.583464
-0.100284 -0.068675 0.073296 -0.780086 0.588132 -0.213465
0.053479 -0.069006 -0.004351 0.487701 -0.314039 -0.814572
-0.113599 -0.277622 -0.037725 0.756665 -0.615492 0.220516
0.064139 -0.049393 -0.022411 0.626135 -0.524621 0.576825
-0.116247 -0.110178 -0.095236 0.698846 -0.484859 -0.525858
0.175784 0.237644 0.117223 0.796743 -0.578909 -0.173392
-0.014651 -0.031904 -0.096630 0.775985 -0.588436 0.227137
0.363733 0.310479 0.107508 -0.118070 -0.946180 0.301334
0.394897 0.325771 0.065849 0.594392 0.801791 0.061885
-0.081869 -0.055673 -0.086671 -0.801735 0.576158 0.158941
-0.208078 -0.147472 -0.047201 -0.489174 0.292664 0.821618
-0.155170 -0.320353 0.015436 0.087504 -0.167767 0.981935
-0.152283 -0.322871 -0.003427 0.755283 -0.617821 0.218736
0.182718 0.340767 0.099001 -0.619381 -0.779966 0.089558
0.025620 -0.024297 0.078280 0.768541 -0.601870 0.217017
-0.178880 -0.366617 -0.016779 0.384130 -0.376934 0.842831
0.087780 -0.018551 -0.005051 0.694184 -0.485438 -0.531467
-0.049395 0.030148 0.062238 0.098276 -0.163983 0.981556
0.122604 0.335270 0.017305 -0.797228 0.603627 -0.007943
-0.039301 0.115924 -0.000701 -0.809180 0.586509 -0.035137
0.193413 0.396790 -0.051082 -0.290056 0.745601 -0.599956
-0.044489 0.002303 0.087795 0.779043 -0.588987 0.214911
-0.245679 -0.390910 0.047581 0.069046 -0.552083 0.830926
0.112147 0.168484 -0.068993 -0.094351 0.143278 -0.985175
0.031548 -0.112013 -0.003332 0.211894 -0.087891 -0.973333
0.178694 0.079739 0.011847 0.214523 -0.084583 -0.973050
-0.163710 -0.092549 -0.023902 -0.652141 0.502840 -0.567331
0.127824 0.240014 -0.054958 -0.386807 0.359959 -0.849005
-0.045006 -0.073156 -0.093997 0.795449 -0.583792 -0.162626
-0.171615 -0.126467 -0.083446 -0.528340 0.414794 -0.740812
0.112555 0.295003 0.009713 -0.403502 0.368828 -0.837348
0.194002 0.439584 -0.018507 -0.681018 -0.723976 -0.109874
0.117932 0.305196 -0.016044 -0.485011 0.297997 0.822169
0.370863 0.317440 0.116974 0.430251 -0.670346 0.604583
-0.052997 -0.131473 -0.091259 -0.634513 0.508741 -0.581873
-0.016424 -0.166236 0.034523 -0.490752 0.305662 0.815925
-0.162712 -0.208886 0.066658 -0.800847 0.572857 0.174579
0.177020 0.394929 0.090655 -0.529000 0.617790 0.581802
0.176735 0.473097 0.031669 -0.716475 0.697601 -0.004047
-0.091099 -0.261784 -0.049385 -0.392183 0.361722 -0.845784
0.120797 0.053660 -0.057254 -0.395399 0.355271 -0.847020
-0.174211 -0.373467 -0.024447 0.307555 0.045791 -0.950428
-0.065005 -0.159411 0.054062 0.386440 -0.378107 0.841249
0.144789 0.339079 0.013594 -0.403502 0.368828 -0.837348
-0.234916 -0.448983 -0.006106 -0.594396 -0.801787 -0.061889
-0.228817 -0.273079 -0.095952 0.486003 -0.324776 -0.811370
0.277984 0.239950 -0.012641 0.218334 -0.081908 -0.972431
-0.120175 -0.300506 -0.052597 -0.390720 0.363682 -0.845620
0.221544 0.155431 -0.010777 0.636209 -0.511194 0.577857
0.102917 -0.017417 -0.034974 0.751695 -0.545754 -0.370279
0.035117 0.209599 0.011621 0.108310 -0.155493 0.981881
0.215313 0.435465 -0.073080 -0.777292 -0.396357 -0.488588
0.017302 -0.123173 0.038462 0.696232 -0.579516 0.423582
0.273107 0.286387 0.112690 0.376530 -0.328254 0.866299
-0.032148 -0.045353 -0.101262 -0.796330 0.583078 0.160869
0.074292 0.239690 0.002903 -0.641949 0.517112 -0.566124
0.029900 0.153162 -0.057802 -0.693886 0.471738 0.544045
0.303740 0.249749 0.034269 -0.573976 -0.514224 0.637280
0.164168 0.396095 0.005168 -0.600672 -0.796969 -0.063510
-0.109698 -0.265659 -0.077317 0.633547 -0.473835 -0.611636
-0.131112 -0.302613 0.011057 0.489136 -0.309766 -0.815347
-0.222882 -0.453813 -0.046938 0.067464 -0.984394 -0.162534
0.164040 0.107718 -0.038595 0.797129 -0.580645 -0.165641
0.131156 0.119295 0.106801 0.249430 -0.259001 0.933115
0.275022 0.317494 0.134857 0.244070 -0.125398 0.961616
0.247374 0.389212 0.151171 -0.639191 -0.714847 0.283600
0.215357 0.402934 -0.044602 -0.410954 0.545561 -0.730397
0.077365 0.231848 -0.026697 -0.111316 0.156474 -0.981389
-0.183860 -0.232377 0.058210 -0.709492 0.457504 0.536014
-0.314094 -0.372736 -0.123708 -0.629484 -0.603297 -0.489675
-0.268253 -0.427538 0.036247 -0.594397 -0.801787 -0.061888
-0.190379 -0.325726 0.036123 0.083832 -0.175381 0.980925
0.032714 0.007517 0.082295 -0.215624 0.072684 0.973768
0.133007 0.286249 -0.037926 -0.794198 0.579562 0.182640
-0.115856 -0.212815 -0.093831 -0.634533 0.508752 -0.581841
0.090820 0.230391 0.080143 0.402272 -0.363744 0.840160
-0.199263 -0.388566 -0.091548 0.766568 -0.174695 -0.617945
0.184454 0.441742 0.045344 -0.690365 -0.722059 -0.045024
0.303060 0.303038 -0.066283 0.126264 -0.648620 -0.750566
-0.191898 -0.155370 0.033137 -0.808538 0.561356 0.176483
-0.165941 -0.096502 0.001819 -0.809412 0.559628 0.177954
-0.204971 -0.410956 -0.055402 0.383478 -0.870707 -0.307919
0.124683 0.009236 0.011636 0.097640 -0.151927 0.983557
-0.077735 -0.052364 0.074310 0.394201 -0.372455 0.840168
0.171684 0.384939 0.077361 -0.600163 -0.797782 -0.057861
0.174480 0.096411 0.003944 0.698729 -0.479476 -0.530924
-0.108809 -0.038648 -0.078968 -0.522115 0.413936 -0.745690
-0.169079 -0.206745 -0.090410 -0.112647 0.118658 -0.986525
-0.151043 -0.287786 -0.076112 0.199606 -0.109843 -0.973700
-0.198239 -0.151669 -0.052857 -0.119031 0.146412 -0.982036
-0.337087 -0.320645 -0.004083 -0.895498 0.367399 0.251200
-0.095710 -0.076147 -0.098893 -0.238572 0.216284 -0.946734
-0.187701 -0.147195 -0.077283 -0.482205 0.299628 0.823226
0.142553 0.230090 0.095987 0.107638 -0.148752 0.982999
0.316047 0.388662 0.008356 0.594398 0.801786 0.061888
0.167404 0.088420 0.024729 0.633336 -0.516490 0.576301
-0.161250 -0.356650 -0.050872 0.101532 -0.143840 0.984379
-0.001895 0.144102 0.010083 -0.491076 0.292349 0.820595
-0.153629 -0.128566 0.048707 -0.501663 0.282097 0.817775
-0.049106 -0.193228 -0.027457 0.763112 -0.607224 0.221224
0.102013 -0.030743 0.003983 0.794898 -0.606723 0.004871
0.278681 0.423688 -0.086545 0.594395 0.801788 0.061888
0.071588 0.215625 -0.059852 -0.522111 0.441334 -0.729812
0.186379 0.439052 0.001667 -0.927647 -0.319871 -0.192753
-0.106675 -0.062701 0.054820 -0.217889 0.064612 0.973833
0.208074 0.368963 -0.065145 -0.597359 -0.799010 -0.068882
0.298561 0.293360 -0.052013 -0.422268 -0.865241 -0.270274
0.074204 0.087302 -0.090636 0.775037 -0.589723 0.227033
-0.151056 -0.268124 -0.101869 0.351142 -0.248962 -0.902617
-0.265425 -0.237105 -0.048097 -0.706511 0.455816 0.541363
0.346372 0.330546 0.141867 0.154375 -0.683907 0.713050
0.310873 0.275637 -0.027995 0.703717 -0.462169 -0.539612
-0.014680 0.014457 0.078308 -0.214894 0.071007 0.974053
0.243738 0.193555 0.004447 0.801814 -0.573903 -0.166522
-0.186025 -0.156100 0.044641 0.097460 -0.165029 0.981462
0.107258 0.037595 0.069276 0.697122 -0.478839 -0.533604
0.088967 0.281700 0.050320 -0.778187 0.564329 0.275605
-0.204875 -0.415158 -0.012017 0.388902 -0.909750 0.145291
-0.085247 -0.054974 -0.096539 -0.266764 0.239142 -0.933621
0.366647 0.345336 0.083697 0.594393 0.801790 0.061884
-0.077743 -0.245885 -0.014970 0.211861 -0.088511 -0.973284
0.073396 0.073467 0.086697 0.096941 -0.160792 0.982216
0.148538 0.088421 0.057526 0.633961 -0.517082 0.575083
-0.047291 0.021331 -0.067227 0.213151 -0.098905 -0.972000
0.215311 0.178843 0.094083 -0.698755 0.475379 0.534561
0.234734 0.442585 0.090719 0.594397 0.801786 0.061888
0.046472 -0.102393 0.000052 0.787538 -0.615973 0.019034
0.225199 0.342690 -0.072780 -0.136660 0.193972 -0.971442
0.099193 -0.007121 0.038322 0.492510 -0.305432 -0.814951
-0.005126 0.134280 -0.027120 -0.487473 0.294713 0.821897
-0.230985 -0.267308 -0.102732 0.802307 -0.574993 -0.160273
-0.071576 0.037777 -0.040405 0.199399 -0.079080 -0.976722
0.067292 -0.043354 0.015041 0.628798 -0.522585 0.575775
0.083913 0.055611 -0.076743 -0.396629 0.351143 -0.848165
0.397302 0.308526 0.064038 0.841222 -0.477215 0.254188
-0.291498 -0.275924 -0.007705 -0.795111 0.568274 -0.211809
-0.017627 0.090609 0.062901 -0.640840 0.515373 -0.568959
0.012752 0.085912 0.081140 -0.801322 0.571821 0.175796
-0.345095 -0.324529 -0.057309 0.374128 0.926847 -0.031353
0.308742 0.401345 -0.085790 0.594396 0.801788 0.061880
0.138742 0.116739 -0.066943 0.797623 -0.580465 -0.163884
0.129282 0.158922 0.094721 0.399337 -0.363461 0.841680
-0.219101 -0.286261 0.060305 -0.802720 0.570292 0.174377
0.331445 0.283063 0.082609 0.846144 -0.182801 0.500623
-0.120299 -0.063669 -0.076659 0.496652 -0.313071 -0.809521
-0.334562 -0.298139 -0.056517 -0.903283 0.307729 -0.298968
0.041980 -0.096335 -0.002477 0.211894 -0.087891 -0.973333
0.220109 0.454134 -0.071942 -0.275241 0.676158 -0.683412
-0.123875 -0.112218 -0.093757 -0.802030 0.575757 0.158910
-0.008421 -0.082834 0.062374 0.387901 -0.376591 0.841256
-0.193662 -0.213898 0.056707 0.389038 -0.379375 0.839478
0.166225 0.346190 0.065042 -0.705612 -0.100405 0.701448
0.128015 0.031430 0.001851 0.694182 -0.485437 -0.531472
0.343910 0.283077 -0.002352 0.982867 0.057978 -0.174962
0.060740 0.205063 0.077396 -0.403531 0.364433 -0.839256
-0.053470 -0.184653 0.029724 0.386454 -0.375926 0.842219
-0.113419 -0.283111 0.014262 0.489254 -0.309860 -0.815241
0.208574 0.461611 0.095481 0.594398 0.801786 0.061887
-0.062618 -0.135304 0.082060 -0.795224 0.580964 0.173489
0.380579 0.334587 0.089148 0.594393 0.801790 0.061884
0.078609 0.028622 -0.062601 0.490789 -0.314223 -0.812644
-0.208907 -0.176170 -0.057420 -0.418597 0.350575 -0.837779
-0.171297 -0.098963 -0.042582 -0.489174 0.292664 0.821618
-0.069567 0.036730 0.034829 -0.213614 0.067770 0.974565
0.164221 0.278737 0.104000 0.638498 -0.515560 0.571418
-0.107805 -0.021762 0.030578 -0.498372 0.284503 0.818953
-0.073222 -0.009518 0.058776 -0.217869 0.064596 0.973838
-0.073945 -0.165471 -0.086159 0.770719 -0.596105 0.225058
0.201623 0.311915 0.102478 0.009302 -0.277750 0.960608
0.065950 -0.028606 0.072672 0.530958 -0.465359 0.708184
-0.070400 0.000300 -0.070736 0.496992 -0.312615 -0.809488
0.175703 0.302331 0.115165 -0.391633 0.230283 0.890838
-0.075853 -0.235450 -0.005393 0.388640 -0.370850 0.843463
-0.154039 -0.283788 -0.077434 0.477231 -0.332000 -0.813650
0.220796 0.458459 0.018931 0.594398 0.801786 0.061888
-0.233111 -0.290990 0.047287 -0.228007 0.052988 0.972216
-0.110243 -0.252246 -0.062905 0.780076 -0.602923 -0.167227
0.250203 0.188959 -0.010309 0.397058 -0.357479 0.845313
-0.230536 -0.392644 0.047533 -0.051918 -0.783278 0.619500
0.163599 0.295029 0.112111 -0.393989 0.232160 0.889311
0.228755 0.183130 -0.046775 0.394234 -0.358948 0.846012
-0.274969 -0.220020 -0.022100 -0.827945 0.558451 0.051377
0.026181 0.170081 0.025662 -0.798180 0.575165 0.179146
0.283694 0.236609 -0.005888 0.397209 -0.357595 0.845192
0.012783 -0.130314 -0.041336 -0.392587 0.361464 -0.845706
0.214433 0.275882 0.103893 0.403691 -0.357361 0.842215
0.112955 0.005213 0.042017 0.492533 -0.305450 -0.814930
0.182912 0.097150 0.049790 0.213987 -0.082939 -0.973309
-0.144762 -0.085591 0.047201 -0.642601 0.512959 -0.569154
-0.169497 -0.167718 0.072051 -0.362017 0.163904 0.917649
-0.153463 -0.297514 -0.076613 -0.108084 0.130032 -0.985601
-0.060955 0.049691 -0.039315 -0.118159 0.147473 -0.981983
0.211096 0.438424 -0.068763 -0.795502 -0.384554 -0.468290
0.113481 0.090567 0.103486 0.268807 -0.274742 0.923179
-0.008222 0.101462 -0.041238 -0.647676 0.510692 -0.565428
0.188493 0.370317 0.106926 -0.675035 -0.734991 0.064156
-0.170173 -0.283134 0.058020 0.792870 -0.584605 -0.172031
0.072249 0.084829 -0.086112 0.796885 -0.581841 -0.162590
0.304830 0.369041 0.167244 0.184702 -0.047268 0.981657
-0.049595 0.089387 0.002950 -0.206564 0.074610 0.975584
0.082585 0.094659 -0.078679 0.697643 -0.485177 -0.527160
-0.244495 -0.257978 -0.081824 -0.109527 0.119841 -0.986733
0.230561 0.153690 0.023099 0.100411 -0.148259 0.983838
0.140112 0.127973 0.088755 0.775145 -0.593164 0.217500
0.180051 0.404120 0.073012 -0.848476 0.311437 0.427897
0.038711 -0.059202 -0.047852 0.787697 -0.593141 -0.166486
0.191607 0.306775 0.102495 0.403935 -0.359487 0.841193
0.327985 0.372083 0.108477 0.594397 0.801787 0.061888
-0.331971 -0.332300 -0.085921 0.449562 0.889665 -0.079937
0.333641 0.273761 -0.008474 0.072214 -0.963410 -0.258119
-0.208690 -0.443315 0.006751 0.947257 -0.039769 0.317998
0.048445 0.199188 -0.012760 -0.797846 0.575064 0.180949
-0.218889 -0.306240 -0.104636 0.793173 -0.586756 -0.163075
0.056102 -0.003092 -0.063931 0.490812 -0.314245 -0.812622
0.385041 0.299168 0.051823 -0.019527 -0.998996 0.040323
0.165859 0.408161 0.051490 -0.498405 0.835553 0.231180
-0.255732 -0.428151 -0.076067 -0.594400 -0.801785 -0.061885
-0.257350 -0.261753 -0.083752 0.494566 -0.315447 -0.809875
0.223152 0.407346 0.135475 -0.678020 -0.724045 0.126679
-0.177075 -0.319027 -0.077924 0.199572 -0.109818 -0.973710
-0.157802 -0.176730 -0.091715 0.490603 -0.318734 -0.810998
0.110188 0.262251 0.064132 -0.793695 0.581657 0.178111
-0.010537 -0.122715 0.059663 0.495436 -0.299204 -0.815487
0.206117 0.470819 -0.000207 0.594398 0.801786 0.061887
0.358631 0.355574 0.028052 0.594392 0.801791 0.061885
-0.116071 -0.146188 0.074882 -0.800847 0.572857 0.174579
0.072233 -0.011742 -0.062015 -0.395360 0.355247 -0.847048
0.024419 0.116454 -0.060990 -0.097375 0.136276 -0.985874
-0.035239 -0.069367 0.073342 0.091735 -0.167847 0.981536
0.081082 0.244934 0.029949 -0.798180 0.575165 0.179146
-0.207691 -0.438287 -0.004577 0.646824 0.758525 0.079112
0.387807 0.335553 0.007213 0.594399 0.801785 0.061887
-0.146448 -0.186636 -0.090955 -0.403106 0.340334 -0.849516
0.119999 0.279339 0.060822 -0.691781 0.478789 0.540555
-0.187497 -0.357854 -0.078643 0.719591 -0.379740 0.581366
0.062254 0.095700 0.108440 -0.097992 -0.021222 0.994961
-0.271366 -0.420006 -0.031432 -0.594400 -0.801785 -0.061887
0.233657 0.404086 0.151606 -0.683341 -0.541496 0.489721
0.133808 0.298967 0.090901 0.637678 -0.518350 0.569807
-0.247671 -0.231854 -0.060507 -0.424615 0.341961 -0.838311
0.140071 0.302056 0.076547 -0.774826 0.595794 -0.211363
-0.036118 -0.199809 -0.040681 0.100283 -0.145487 0.984265
0.246882 0.363988 -0.079962 0.458135 0.769457 -0.445026
-0.205112 -0.441768 -0.061244 0.882091 -0.365243 -0.297510
0.100862 0.076067 0.087036 0.771917 -0.597400 0.217388
0.391346 0.334277 -0.010268 0.594634 0.801632 0.061614
-0.115828 -0.047366 0.037998 -0.807430 0.562909 0.176607
-0.197383 -0.191002 0.043404 -0.501663 0.282097 0.817775
0.363015 0.333269 0.132792 0.674956 -0.136968 0.725034
0.192163 0.139280 -0.026519 0.699143 -0.480129 -0.529789
0.271339 0.428599 -0.079657 0.594398 0.801786 0.061888
-0.305649 -0.351266 -0.116193 0.423776 0.836788 -0.346698
0.011684 0.162357 -0.027237 -0.486288 0.296384 0.821998
-0.248582 -0.316126 0.046076 -0.507740 0.275894 0.816139
0.111898 0.203569 0.096572 0.400701 -0.363714 0.840923
0.177824 0.336933 -0.046218 0.395604 -0.435490 -0.808608
0.017796 0.127725 -0.065482 0.498289 -0.310537 -0.809490
0.021149 0.152325 0.078487 -0.592931 0.380598 0.709632
0.103802 0.166602 -0.068776 0.218514 -0.089475 -0.971723
-0.076151 -0.089136 -0.085252 -0.403106 0.340334 -0.849516
-0.133571 -0.310102 -0.051622 -0.101678 0.141292 -0.984733
-0.012563 -0.162736 -0.008344 0.211818 -0.088479 -0.973296
-0.152659 -0.109515 0.049161 0.097583 -0.165122 0.981434
0.234460 0.289320 0.103829 -0.458089 -0.294207 0.838807
-0.155933 -0.152907 0.068505 0.634427 -0.520970 0.571045
-0.076118 -0.154121 0.080248 0.207141 -0.260003 0.943128
0.366065 0.346405 0.075439 0.594393 0.801790 0.061884
0.308960 0.395430 -0.011267 0.594398 0.801786 0.061888
0.053771 0.085253 0.094665 -0.700801 0.469413 0.537149
0.094354 0.138330 0.102675 -0.797718 0.577141 0.174799
0.013693 0.152370 -0.017205 -0.797894 0.575102 0.180619
0.058888 -0.051530 0.018877 0.763654 -0.607167 0.219499
-0.038950 0.105714 0.036017 -0.106964 0.157441 -0.981718
0.190450 0.428979 0.076181 -0.846577 -0.520873 0.109538
0.112986 0.288253 0.038854 -0.774236 0.597172 -0.209627
0.199552 0.191617 -0.074123 0.378486 -0.213120 -0.900738
0.158633 0.238215 0.099118 -0.486740 0.304656 0.818700
0.161081 0.079831 0.001283 0.698729 -0.479476 -0.530924
-0.121098 -0.162629 0.079105 0.800261 -0.574244 -0.172704
0.240749 0.184048 0.012594 0.703188 -0.473442 -0.530452
-0.066713 0.014021 -0.074811 0.705076 -0.477896 -0.523912
0.160075 0.399139 0.019708 -0.864221 -0.496622 -0.080547
-0.081095 -0.005170 0.059902 0.399662 -0.367048 0.839968
0.222725 0.282853 0.103242 0.106857 -0.147443 0.983281
0.211093 0.368542 -0.071645 -0.664907 -0.387698 -0.638428
-0.177113 -0.240493 -0.101974 -0.778354 0.584599 -0.228929
-0.040776 -0.056223 -0.092465 -0.776429 0.587298 -0.228560
-0.006905 0.117013 0.042925 -0.493630 0.290854 0.819594
-0.059969 -0.138255 0.075703 0.794566 -0.582345 -0.171870
0.152507 0.052837 -0.022251 0.098255 -0.148311 0.984048
0.256593 0.322168 0.136760 -0.232636 -0.504613 0.831412
0.207140 0.436852 -0.060057 -0.793278 -0.475250 -0.380589
0.094806 0.061412 -0.086730 -0.772589 0.593052 -0.226706
-0.156891 -0.147034 0.057797 -0.805534 0.566007 0.175360
-0.049042 0.001748 0.072283 -0.804734 0.567107 0.175476
-0.000049 0.115602 0.074469 0.639727 -0.515473 0.570119
-0.279572 -0.420448 0.053096 -0.594398 -0.801786 -0.061888
0.308029 0.392790 0.031885 0.594401 0.801784 0.061887
0.260620 0.202954 0.027757 0.399655 -0.356408 0.844541
-0.146420 -0.311996 -0.079456 0.633547 -0.473835 -0.611636
-0.028301 0.122679 0.004934 0.109332 -0.154061 0.981994
-0.169919 -0.086290 -0.016510 -0.112910 0.152133 -0.981889
0.035388 -0.057274 0.060622 0.695741 -0.480511 -0.533904
-0.127994 -0.296832 -0.026295 0.681886 -0.501424 -0.532546
0.142822 0.183106 0.098740 0.399337 -0.363461 0.841680
0.136780 0.111485 -0.081540 0.378486 -0.213120 -0.900738
0.229003 0.170844 -0.017817 0.218437 -0.081994 -0.972400
0.074164 0.255858 -0.026691 -0.722499 0.564379 -0.399339
-0.068911 -0.044126 -0.094597 0.800845 -0.576953 -0.160541
0.298920 0.402632 -0.008140 0.594398 0.801786 0.061888
0.055865 0.132293 -0.074844 -0.774092 0.589873 -0.229850
0.187701 0.432614 0.028149 -0.743424 -0.665841 -0.063056
0.391717 0.322382 0.094062 0.708399 -0.521355 0.475773
-0.062506 0.056495 -0.008601 -0.410056 0.360018 -0.837998
-0.215807 -0.293082 -0.104706 -0.778355 0.584600 -0.228926
0.212103 0.458542 0.101351 0.594398 0.801786 0.061887
-0.036767 0.112843 0.004334 0.109332 -0.154061 0.981994
0.139708 0.197239 -0.069048 -0.392874 0.354304 -0.848598
0.153710 0.288630 -0.047937 -0.088413 0.148586 -0.984939
0.028615 0.145787 -0.067097 0.703282 -0.480443 -0.523993
-0.086522 -0.026520 -0.070961 0.213437 -0.099140 -0.971914
0.298221 0.370922 0.168328 0.038771 -0.166742 0.985238
0.078056 0.239450 -0.010150 -0.797846 0.575064 0.180949
0.378145 0.346591 -0.042983 0.594401 0.801784 0.061883
0.042565 0.176408 0.051655 -0.696777 0.472146 0.539982
0.111851 0.209630 -0.075598 -0.799227 0.579548 0.159250
-0.156013 -0.074859 -0.018104 -0.414258 0.354192 -0.838414
-0.099012 -0.018598 0.064426 0.640847 -0.513955 0.570233
-0.167609 -0.244324 -0.093861 0.479897 -0.330558 -0.812669
-0.201740 -0.271518 0.066587 0.801673 -0.572223 -0.172860
-0.054861 -0.093171 -0.086731 0.487447 -0.320721 -0.812116
-0.211453 -0.185106 -0.062084 -0.660639 0.492486 -0.566581
0.030810 0.083175 -0.078899 0.494937 -0.313021 -0.810589
0.153899 0.372082 0.000063 -0.760331 0.600603 -0.247332
0.257929 0.264048 0.089640 0.105140 -0.146839 0.983557
0.004516 -0.035421 -0.078848 -0.104679 0.131935 -0.985716
0.055134 0.013578 0.092158 0.699419 -0.474445 -0.534524
0.007291 -0.041610 -0.080900 -0.400030 0.346670 -0.848408
0.382978 0.339295 0.005115 0.594395 0.801788 0.061890
0.041968 0.156774 0.073241 0.104841 -0.155281 0.982291
0.072789 0.189325 0.076110 -0.208668 0.076982 0.974952
0.245892 0.174099 -0.020461 -0.395819 0.357118 -0.846046
0.089581 0.242917 -0.055863 -0.484700 0.296381 0.822936
-0.179482 -0.172356 0.068552 -0.636096 0.520367 -0.569738
0.227218 0.252842 0.117317 0.197834 -0.211818 0.957076
0.216852 0.463592 -0.062276 -0.545763 0.497040 -0.674607
0.061493 0.009064 -0.087638 0.371827 -0.222166 -0.901325
-0.203047 -0.401161 0.031793 0.406351 -0.728617 0.551358
0.161658 0.352998 0.063380 -0.567601 -0.515299 0.642103
0.057008 0.205616 0.049298 -0.489185 0.296891 0.820094
-0.102886 0.014293 -0.008597 -0.112498 0.152530 -0.981875
-0.096640 0.000916 0.014704 -0.787948 0.578400 -0.211166
-0.062000 -0.022464 0.083393 0.779055 -0.588993 0.214850
-0.264983 -0.258254 0.019978 -0.814550 0.552758 0.175974
-0.090214 0.043920 -0.000483 0.110451 -0.152550 0.982104
0.265840 0.238620 -0.048530 -0.632952 0.512383 -0.580375
0.016151 -0.019102 0.081730 -0.498692 0.290754 0.816559
0.046099 -0.092409 -0.038111 0.748397 -0.557811 -0.358815
0.211244 0.308152 0.106303 -0.707296 -0.099087 0.699939
0.288257 0.263840 -0.037519 0.073301 -0.689653 0.720420
0.182912 0.399064 0.083712 0.492505 0.859606 0.136076
0.263341 0.416017 0.160164 0.594398 0.801786 0.061888
-0.162278 -0.074579 -0.051848 0.487280 -0.292912 -0.822655
0.176989 0.113394 -0.057141 0.612082 -0.403319 -0.680212
0.277411 0.350908 0.125402 -0.119016 -0.369035 0.921764
0.341383 0.322888 0.129462 -0.293058 -0.900201 0.322110
-0.044948 0.077200 0.037330 0.105327 -0.157098 0.981950
0.370742 0.344076 0.060692 0.594393 0.801790 0.061884
0.276257 0.231797 0.017048 0.703188 -0.473442 -0.530452
0.112891 0.019949 0.025532 0.768995 -0.600179 0.220074
0.230473 0.222374 0.086783 -0.208790 0.084657 0.974290
-0.008190 0.132874 0.010317 -0.491076 0.292349 0.820595
-0.181040 -0.115493 -0.024318 -0.652141 0.502840 -0.567331
0.176790 0.258248 0.102458 -0.486712 0.304637 0.818723
0.168571 0.346691 -0.045933 -0.578432 0.156269 0.800623
0.158628 0.308921 0.084318 0.107809 -0.150885 0.982655
-0.177786 -0.138389 -0.085342 0.705272 -0.477591 -0.523926
-0.126441 -0.067933 -0.058497 -0.789577 0.577316 -0.208023
0.176918 0.384789 0.096597 -0.859076 -0.015506 0.511613
-0.176673 -0.183917 0.063256 0.634463 -0.520994 0.570983
0.210217 0.205876 -0.072356 0.631521 -0.514349 0.580195
-0.292674 -0.406505 -0.001693 -0.594394 -0.801789 -0.061889
0.149190 0.046811 0.050969 0.707243 -0.572421 0.414899
0.304506 0.401472 -0.046758 0.594394 0.801789 0.061884
0.354971 0.321356 -0.039530 0.859338 -0.083238 -0.504589
-0.121202 -0.217867 0.062366 0.794567 -0.582347 -0.171860
0.180332 0.083260 -0.025047 0.768005 -0.545519 -0.335527
-0.187046 -0.095779 -0.017439 0.206207 -0.072726 -0.975802
-0.090143 -0.018428 -0.076744 0.705059 -0.477879 -0.523949
-0.246437 -0.279279 -0.103425 -0.698786 0.486286 0.524618
-0.229800 -0.313981 0.051656 0.624132 -0.532960 0.571326
-0.212008 -0.195763 0.040471 0.093089 -0.170887 0.980883
0.146885 0.266941 0.100718 -0.775925 0.593782 -0.212986
-0.177524 -0.337179 0.035880 0.693719 -0.483144 -0.534159
-0.262458 -0.328047 -0.112963 0.393318 0.719553 -0.572315
-0.017559 0.038338 -0.091507 -0.701668 0.482504 0.524262
0.161149 0.279522 -0.073444 -0.703745 0.479623 0.524123
0.012478 -0.070700 0.062577 -0.218694 0.071081 0.973201
0.403820 0.313868 0.016358 0.822478 -0.563045 -0.080686
-0.030420 -0.047354 0.079622 0.629553 -0.526208 0.571636
-0.067538 0.066134 0.032784 -0.107118 0.157561 -0.981682
-0.209194 -0.349664 -0.095984 0.964960 0.168879 0.200829
0.062699 0.237861 0.007951 -0.109693 0.156329 -0.981595
0.193594 0.143324 0.088281 0.514815 -0.440485 0.735485
0.138719 0.138140 0.100090 -0.697798 0.475180 0.535987
0.134535 0.036005 0.004409 0.491010 -0.309515 -0.814316
0.141153 0.335894 0.025213 -0.484725 0.300836 0.821303
0.121804 0.230865 -0.056094 -0.386807 0.359959 -0.849005
-0.106961 -0.013011 0.007054 -0.808209 0.561322 0.178091
-0.252058 -0.278703 -0.084565 -0.409831 0.328506 -0.850954
0.269075 0.237167 -0.042637 0.394248 -0.358959 0.846001
0.067460 0.090285 0.098082 0.774733 -0.594251 0.215997
0.197620 0.457600 0.109421 -0.434728 0.698107 0.568910
-0.014844 -0.087471 -0.080867 0.790830 -0.589495 -0.164572
0.202908 0.415537 0.087669 -0.789858 -0.596601 0.142094
-0.015829 0.105108 -0.036025 -0.114710 0.152143 -0.981679
0.062468 0.030148 -0.077256 -0.396629 0.351143 -0.848165
-0.118617 -0.160655 0.072926 0.773140 -0.596383 0.215826
-0.002780 -0.055816 0.090317 -0.795465 0.580692 0.173297
0.210382 0.327748 -0.072769 0.114949 -0.986661 0.115271
0.308719 0.399396 -0.060320 0.594390 0.801792 0.061887
0.162949 0.370900 0.069978 -0.723756 0.519086 0.454672
-0.104428 -0.250045 0.023919 0.386683 -0.376072 0.842049
0.110402 0.159167 0.108811 -0.776367 0.592606 -0.214644
-0.126081 -0.275042 -0.078884 -0.398631 0.350831 -0.847355
-0.007741 -0.078532 -0.093531 0.364786 -0.231504 -0.901852
-0.223979 -0.183583 -0.054386 -0.123532 0.140298 -0.982373
-0.265234 -0.393722 0.060201 0.610619 0.757424 0.231200
0.273991 0.253574 -0.020316 0.704229 -0.473590 -0.528937
0.287242 0.250846 0.037342 0.532782 -0.634959 0.559437
0.056085 -0.040951 -0.040594 0.688843 -0.493783 -0.530728
0.062224 -0.000697 -0.061160 0.490812 -0.314245 -0.812622
-0.277344 -0.273243 0.028396 -0.644494 0.510415 -0.569302
0.109878 0.098839 0.097385 -0.697736 0.475134 0.536109
0.055040 -0.056921 -0.035341 0.208609 -0.094883 -0.973386
0.132867 0.175023 0.101422 0.635909 -0.517365 0.572672
-0.278159 -0.295843 0.029972 -0.225080 0.054762 0.972800
-0.131223 -0.027901 -0.045890 -0.738909 0.547426 -0.392859
-0.021082 -0.144357 -0.075417 0.585453 -0.413861 -0.697111
0.233360 0.178279 0.007120 0.801805 -0.573876 -0.166658
-0.263875 -0.323067 0.048679 0.578975 0.650848 0.491106
0.156654 0.110492 0.081262 -0.492516 0.301345 0.816468
0.189750 0.420813 0.031268 -0.838686 0.543705 0.031474
-0.004197 0.134078 0.042059 0.105327 -0.157098 0.981950
0.184953 0.260351 0.112267 -0.796363 0.579000 0.174827
0.320449 0.352497 -0.086154 -0.504445 -0.822676 -0.262183
0.327003 0.369317 0.153745 0.594401 0.801784 0.061887
0.177611 0.410549 0.054327 -0.033812 0.974982 0.219699
-0.025919 -0.027560 -0.084262 -0.401979 0.341828 -0.849451
-0.268607 -0.216770 -0.020653 0.112238 -0.150270 0.982253
-0.046269 0.087888 -0.034164 -0.202650 0.077677 0.976166
0.166843 0.271595 0.099609 0.107749 -0.148824 0.982976
-0.337952 -0.371829 -0.016075 -0.594394 -0.801789 -0.061889
0.289958 0.246415 -0.004683 0.397209 -0.357595 0.845192
-0.143748 -0.049759 0.022074 -0.408356 0.360107 -0.838790
0.099859 0.203621 0.095743 -0.777274 0.591930 -0.213224
0.166272 0.206869 -0.069710 0.704147 -0.476311 -0.526598
0.284792 0.264940 -0.020307 0.352513 -0.791276 -0.499617
0.093067 -0.040844 0.008927 -0.212471 0.084744 0.973486
-0.128295 -0.118037 -0.094981 -0.802030 0.575757 0.158910
0.149050 0.312831 0.072128 -0.793681 0.581646 0.178209
-0.148312 -0.242786 -0.089846 -0.111989 0.122139 -0.986175
-0.166398 -0.226996 -0.103939 -0.778354 0.584599 -0.228929
0.197191 0.319108 0.107277 0.084431 -0.689814 0.719047
-0.156116 -0.307521 0.036856 0.693860 -0.483268 -0.533863
-0.128928 -0.039761 0.017846 -0.647546 0.507970 -0.568024
-0.097622 -0.268195 -0.049321 -0.101678 0.141292 -0.984733
0.189102 0.252219 -0.078373 -0.799544 0.578695 0.160752
-0.317690 -0.381066 -0.091003 -0.594394 -0.801789 -0.061888
-0.187420 -0.362574 -0.079433 0.632435 0.072355 0.771227
-0.247032 -0.386396 -0.105033 0.376463 -0.139608 -0.915852
-0.213682 -0.424905 -0.002072 0.844847 0.506258 0.173019
0.138094 0.172869 -0.077197 0.798263 -0.579989 -0.162447
0.317283 0.259806 0.035319 0.802918 -0.586236 0.107935
0.156463 0.373023 -0.005153 -0.748360 0.595014 -0.293115
0.182512 0.411034 -0.013143 -0.315288 0.900978 -0.298047
0.014244 -0.054586 0.064567 0.387901 -0.376591 0.841256
-0.019861 0.067749 0.065328 0.101619 -0.159490 0.981955
-0.039366 0.059093 -0.043832 -0.647576 0.510618 -0.565610
0.062838 0.041115 -0.074310 -0.099990 0.138346 -0.985323
0.115138 0.315575 0.054522 -0.752282 0.540628 0.376554
0.339003 0.285416 -0.020406 0.919774 -0.170725 -0.353366
0.336107 0.282253 -0.023445 0.756973 -0.472776 -0.451082
-0.025387 0.071867 -0.055122 -0.800510 0.571061 0.181862
-0.081834 -0.213237 0.048330 0.695415 -0.480883 -0.533994
0.319791 0.304612 0.097178 0.819332 0.214268 0.531775
0.054975 -0.030629 0.059785 0.793844 -0.583714 -0.170555
-0.111454 -0.293184 -0.052214 0.713101 -0.546022 -0.439713
-0.205012 -0.439852 -0.012057 0.889388 0.439505 0.125792
0.400293 0.321471 0.069738 0.594392 0.801791 0.061885
0.185160 0.440278 0.061614 -0.688092 -0.725111 -0.027257
0.214428 0.121589 0.014774 -0.097991 0.149188 -0.983941
0.162309 0.384336 0.004387 -0.770764 0.604708 -0.200627
-0.080243 -0.218414 0.026939 0.386683 -0.376072 0.842049
-0.104785 -0.033799 -0.079094 -0.522115 0.413936 -0.745690
0.017920 0.006975 -0.083557 0.697602 -0.485132 -0.527256
0.176443 0.225318 -0.079950 0.773222 -0.592119 0.226989
-0.156811 -0.238497 -0.090267 0.198881 -0.113304 -0.973452
-0.197506 -0.327271 -0.093206 0.768858 -0.598652 0.224663
0.145606 0.349961 0.023599 -0.204133 0.077906 0.975838
0.176323 0.229201 -0.083914 0.106849 0.006251 -0.994256
0.220036 0.464978 -0.058228 0.594398 0.801786 0.061888
0.291315 0.223341 0.027913 0.807848 -0.588850 0.025235
0.015082 -0.023681 0.082707 -0.498692 0.290754 0.816559
-0.232328 -0.313023 0.062124 0.801673 -0.572223 -0.172860
0.188157 0.192852 0.093928 0.778266 -0.588891 0.217968
-0.317300 -0.290977 -0.055946 0.417409 0.908610 -0.014065
-0.036738 -0.110979 0.082116 0.700473 -0.472905 -0.534508
-0.101005 -0.206076 0.049626 0.386440 -0.378107 0.841249
0.143319 0.149124 0.097471 -0.491883 0.299764 0.817431
-0.030409 -0.110254 0.060237 0.387687 -0.376463 0.841412
-0.117407 -0.278876 0.004540 0.780026 -0.602143 -0.170243
0.287002 0.227938 0.028527 0.100411 -0.148259 0.983838
0.119954 0.230622 0.097578 -0.775902 0.593778 -0.213081
-0.200763 -0.146131 -0.040723 -0.702253 0.461765 0.541862
-0.289912 -0.409615 0.012059 -0.594401 -0.801784 -0.061887
0.030058 0.041505 0.098031 0.774733 -0.594251 0.215997
0.205418 0.322170 0.119540 -0.464390 -0.881237 -0.088107
0.020029 -0.094615 -0.070186 0.608303 -0.430163 -0.667028
0.300565 0.355288 -0.070130 -0.464460 -0.796931 -0.386235
-0.259328 -0.243600 0.034577 -0.644424 0.510371 -0.569420
-0.148359 -0.332355 0.017614 -0.489370 0.307205 0.816176
0.213799 0.345759 -0.069847 -0.241673 0.263246 -0.933968
0.144653 0.055802 -0.026403 0.215216 -0.086192 -0.972755
-0.081271 0.028346 0.024424 -0.647530 0.507959 -0.568051
0.284799 0.266421 -0.048078 -0.836106 0.081673 -0.542454
0.009920 -0.103828 -0.073330 0.589725 -0.414353 -0.693207
-0.032524 -0.131484 0.056893 -0.219506 0.069978 0.973098
-0.159100 -0.203846 -0.091846 -0.403106 0.340334 -0.849516
0.221587 0.251172 -0.058784 -0.091046 0.150405 -0.984423
0.187303 0.393766 0.097043 0.181542 0.911395 0.369326
-0.096217 -0.256509 0.021972 -0.215984 0.077626 0.973306
-0.240294 -0.439308 0.041524 -0.282059 -0.919861 0.272577
0.187433 0.380994 0.109906 -0.697966 0.164271 0.697036
-0.110556 -0.272553 -0.028896 0.778182 -0.604838 -0.169126
0.006220 -0.106605 -0.072159 -0.629749 0.516766 -0.579974
0.023831 -0.116792 0.001972 0.096222 -0.153895 0.983391
-0.209626 -0.329063 0.058440 -0.793989 0.582637 0.173541
0.226577 0.153958 0.015969 0.215800 -0.082995 -0.972904
0.140190 0.079561 -0.055404 -0.394172 0.356928 -0.846895
-0.338087 -0.305545 -0.036968 -0.956976 0.263110 -0.122351
0.270972 0.411622 0.143810 0.594395 0.801788 0.061888
0.260707 0.226968 -0.048189 0.615038 -0.391105 -0.684665
-0.141483 -0.296152 0.043483 0.497262 -0.296968 -0.815194
-0.076599 -0.055023 -0.093782 0.800845 -0.576953 -0.160541
0.087148 0.047827 -0.074248 0.772566 -0.593719 0.225030
-0.366841 -0.339414 -0.058468 -0.594399 -0.801786 -0.061888
-0.280448 -0.337001 0.065000 0.173764 0.566014 0.805875
0.342465 0.319760 0.108342 -0.518698 -0.854632 0.023601
0.393550 0.325958 0.076363 0.594395 0.801789 0.061883
0.272814 0.211428 0.060330 0.697421 -0.544317 0.466180
0.020902 -0.041416 -0.074065 0.790822 -0.589477 -0.164674
0.217561 0.152348 -0.009120 0.636209 -0.511194 0.577857
-0.137985 -0.300675 0.017267 0.087576 -0.167818 0.981920
0.014585 -0.049078 -0.076978 0.790830 -0.589495 -0.164572
0.256577 0.211083 0.035691 0.637772 -0.510322 0.576904
-0.337928 -0.301307 -0.040873 -0.877493 -0.463648 -0.122627
-0.002932 0.138873 0.034965 -0.406417 0.362419 -0.838736
-0.142863 -0.165209 0.060935 -0.221376 0.062309 0.973196
0.257202 0.390892 -0.079838 -0.607472 -0.686649 -0.399363
-0.064948 -0.170449 -0.070740 0.205829 -0.101540 -0.973306
0.019030 0.177416 0.003204 -0.109691 0.156328 -0.981595
0.043066 0.126317 0.101178 -0.367566 0.186077 0.911192
-0.002499 -0.163835 -0.000991 -0.211314 0.086328 0.973598
0.085625 -0.011685 -0.063331 0.620460 -0.426222 -0.658304
0.194842 0.281106 0.104684 -0.486712 0.304637 0.818723
0.247151 0.341282 -0.080582 -0.585039 -0.779450 -0.224026
0.329124 0.367497 0.156965 0.594401 0.801784 0.061887
-0.019075 0.092279 -0.068242 -0.546381 0.442845 -0.710884
-0.152380 -0.088778 -0.049093 -0.418561 0.350549 -0.837808
0.250206 0.200894 0.050657 0.701627 -0.474200 -0.531840
0.342731 0.337536 0.148105 0.373717 -0.404137 0.834871
0.017301 0.120032 0.069973 0.101680 -0.159538 0.981941
0.247080 0.401427 0.161610 -0.493067 -0.214045 0.843249
-0.190749 -0.260750 0.058653 0.624293 -0.533064 0.571053
0.165426 0.315246 -0.046637 0.223468 -0.085653 -0.970941
0.048802 -0.064700 0.017535 0.763654 -0.607167 0.219499
0.133316 0.226993 -0.072300 0.703342 -0.478755 -0.525456
0.278210 0.229103 0.058798 0.494966 -0.302166 -0.814680
-0.341776 -0.335657 0.028655 0.253637 0.910914 0.325427
0.221349 0.175979 -0.021945 0.499335 -0.300533 -0.812616
0.082450 0.219768 -0.038143 -0.779380 0.591321 -0.207138
-0.077837 -0.196390 -0.071107 -0.103737 0.135931 -0.985272
-0.224859 -0.451427 -0.059128 0.051368 -0.965848 -0.253968
0.287526 0.413067 -0.106381 -0.049030 0.153010 -0.987008
0.253497 0.209696 -0.015590 0.218334 -0.081908 -0.972431
-0.308220 -0.336649 -0.096775 -0.559338 0.200115 -0.804422
-0.066284 -0.233087 -0.007476 0.095945 -0.154405 0.983338
0.257275 0.437566 -0.060748 0.594395 0.801788 0.061888
0.073916 0.216077 -0.055424 -0.484700 0.296381 0.822936
0.085372 0.180958 -0.060084 -0.391836 0.353332 -0.849483
0.133762 0.313987 0.002389 -0.774241 0.597712 -0.208065
-0.316761 -0.296859 0.013238 0.243163 0.939269 0.242167
0.317748 0.378705 0.121020 0.594398 0.801786 0.061888
0.192634 0.121810 0.045573 0.698466 -0.478472 -0.532175
-0.029612 -0.147466 0.035826 0.622520 -0.532448 0.573557
-0.233983 -0.359138 0.055606 0.184231 -0.285405 0.940533
0.217653 0.294182 0.120848 0.796755 -0.578938 -0.173239
-0.319570 -0.326441 -0.084030 -0.737675 0.160355 -0.655837
0.329863 0.379136 -0.000915 0.594393 0.801790 0.061884
0.008203 -0.056970 -0.080266 0.771055 -0.595647 0.225119
-0.094378 -0.101221 -0.085276 0.207928 -0.103483 -0.972655
0.185349 0.481381 0.022829 -0.779973 0.623142 -0.057759
0.156234 0.066673 -0.018171 0.395777 -0.359384 0.845106
-0.205082 -0.294351 -0.095641 0.479897 -0.330558 -0.812669
-0.334196 -0.290586 -0.035043 -0.598666 0.796398 -0.085731
-0.258094 -0.394392 -0.127592 0.523886 0.358463 -0.772688
0.171361 0.236355 0.119878 -0.005028 -0.061352 0.998104
-0.202760 -0.189996 -0.079520 0.207911 -0.106182 -0.972367
0.044793 -0.091648 0.003856 0.096304 -0.153951 0.983374
0.180934 0.160348 0.082318 0.100567 -0.152945 0.983104
-0.189250 -0.302300 0.061812 -0.793979 0.582623 0.173630
0.045040 0.111455 -0.086331 0.799902 -0.578221 -0.160680
-0.282467 -0.263814 -0.009153 -0.815985 0.550252 0.177176
0.299354 0.235885 0.023431 -0.098963 0.147679 -0.984072
-0.023911 -0.143477 0.062473 0.517673 -0.472472 0.713292
0.195313 0.407880 0.076270 -0.505010 0.707990 0.493675
0.203293 0.434750 -0.040642 -0.640591 -0.760233 -0.108119
-0.186304 -0.328619 0.035582 -0.224047 0.063929 0.972479
0.004325 -0.125751 -0.026683 0.764314 -0.605738 0.221144
0.150072 0.154084 0.100736 -0.697798 0.475180 0.535987
-0.053516 -0.027284 -0.088240 0.699186 -0.484405 -0.525825
0.041476 0.215698 0.006793 -0.109693 0.156329 -0.981595
0.181986 0.395116 0.094238 -0.141816 0.838336 0.526385
-0.130883 -0.243624 -0.096212 0.635677 -0.508651 0.580680
0.081813 -0.006320 0.072966 0.494389 -0.300764 -0.815550
0.176414 0.315602 -0.045906 -0.088413 0.148586 -0.984939
0.163728 0.321769 -0.049166 0.500901 -0.306765 -0.809317
0.154471 0.099524 0.075569 0.698390 -0.477253 -0.533367
0.102166 0.296583 0.056099 -0.760090 0.548606 0.348273
0.320612 0.387715 -0.023213 0.594393 0.801790 0.061884
0.287397 0.407890 0.034408 0.594399 0.801785 0.061888
-0.336047 -0.335992 -0.096632 0.553348 0.832827 0.014313
0.234581 0.280163 -0.056076 0.222232 -0.082094 -0.971531
0.144323 0.126939 0.083245 0.398112 -0.362882 0.842510
0.089026 0.254552 -0.001879 -0.774192 0.597679 -0.208341
0.164827 0.223201 0.112716 0.777161 -0.590960 0.216302
-0.087629 -0.118496 0.078417 0.773138 -0.596382 0.215840
-0.253575 -0.437601 0.025635 -0.594396 -0.801788 -0.061889
0.318944 0.340495 -0.058919 -0.404346 -0.844323 -0.351602
0.333036 0.286235 0.079770 0.909490 0.067535 0.410205
0.060259 0.074205 0.090716 0.632904 -0.521724 0.572046
-0.029229 -0.024110 0.081545 -0.704273 0.464757 0.536657
0.014456 -0.043513 -0.087838 -0.634209 0.509143 -0.581852
-0.296212 -0.295242 0.019737 -0.118251 0.987566 -0.103587
0.007770 -0.134040 0.030359 0.216119 -0.079969 -0.973087
0.352795 0.358194 0.050157 0.594393 0.801790 0.061884
0.048821 0.078247 0.094328 -0.700801 0.469413 0.537149
-0.156227 -0.097754 -0.076842 -0.482368 0.299762 0.823082
0.187826 0.353857 0.105747 -0.503591 0.329491 0.798644
0.340048 0.274998 0.055666 0.826949 -0.502008 0.253266
0.374932 0.304386 0.005737 -0.498637 -0.862927 -0.081967
0.134476 0.244761 0.107510 0.775848 -0.593357 0.214444
0.180792 0.184919 0.098797 0.778300 -0.588897 0.217827
0.332815 0.281060 -0.026219 0.568031 -0.685321 -0.455716
0.157247 0.362871 -0.007702 -0.764446 -0.362869 0.532868
-0.309898 -0.389253 -0.059779 -0.594393 -0.801789 -0.061888
0.195389 0.380615 -0.060108 -0.757724 -0.324111 -0.566397
0.254412 0.432912 0.027041 0.594397 0.801787 0.061888
0.344308 0.320647 -0.032200 -0.402304 -0.891404 -0.208690
0.394370 0.327844 0.044054 0.594390 0.801792 0.061887
0.115080 0.287874 0.054887 -0.203966 0.080796 0.975638
-0.067889 -0.150905 0.061160 0.624567 -0.531290 0.572405
0.203116 0.162165 0.083235 0.699609 -0.475608 -0.533240
0.040187 -0.049706 0.056832 0.790459 -0.588193 -0.170894
-0.097224 -0.276196 -0.011259 0.094060 -0.156941 0.983119
-0.244091 -0.439944 -0.035089 -0.594397 -0.801787 -0.061888
-0.021010 0.122424 -0.038557 0.486116 -0.294495 -0.822778
0.287337 0.237697 0.022149 0.497288 -0.300959 -0.813713
0.331046 0.366370 0.153099 0.594397 0.801787 0.061888
0.247371 0.251194 -0.043530 0.500578 -0.300763 -0.811766
0.007931 0.024529 -0.079188 -0.397299 0.348236 -0.849050
0.393895 0.333069 -0.019073 0.594395 0.801788 0.061891
-0.064663 -0.222072 0.026426 -0.490607 0.305546 0.816056
-0.009342 -0.119699 -0.068933 -0.396622 0.353494 -0.847191
0.087662 0.187836 0.088550 -0.798071 0.576244 0.176140
-0.065807 -0.199795 -0.050664 0.687616 -0.495477 -0.530742
-0.066449 -0.015302 0.062948 -0.500432 0.283763 0.817952
0.006807 0.081467 0.075032 -0.701761 0.466705 0.538255
-0.288214 -0.290682 0.023655 -0.685049 0.700319 -0.200652
-0.115551 -0.101774 -0.087510 -0.781242 0.579963 -0.230876
0.102643 0.137948 0.102540 0.775952 -0.592593 0.216176
0.308795 0.399754 -0.065687 0.594395 0.801789 0.061883
0.201941 0.137946 0.032206 0.773970 -0.593530 0.220663
0.093783 0.265431 0.024940 -0.691544 0.477771 0.541758
-0.009534 0.060529 0.071882 -0.701822 0.466751 0.538136
-0.127679 -0.175976 -0.107575 0.051087 0.005151 -0.998681
-0.052028 0.094347 -0.003202 0.205069 -0.074320 -0.975922
-0.097937 -0.225604 -0.073022 -0.103737 0.135931 -0.985272
0.052257 0.127419 -0.075499 -0.799227 0.579548 0.159250
0.398464 0.315760 0.071113 0.775602 -0.557345 0.296325
0.325860 0.380567 0.018996 0.594394 0.801789 0.061884
0.335910 0.369856 0.061216 0.594224 0.801908 0.061978
-0.135214 -0.301458 -0.001884 0.755283 -0.617821 0.218736
0.175321 0.131468 0.084780 -0.492319 0.301204 0.816638
-0.102225 -0.024323 0.035800 -0.706914 0.458383 0.538663
-0.322287 -0.386435 0.022709 -0.594400 -0.801785 -0.061888
0.273599 0.378632 -0.082182 -0.553672 -0.725982 -0.407918
-0.325275 -0.380812 -0.021444 -0.594400 -0.801785 -0.061888
0.174843 0.401256 0.079934 -0.444277 0.779004 0.442459
-0.123829 -0.030390 0.028354 0.104065 -0.158855 0.981802
0.339717 0.375533 -0.048884 0.594207 0.801911 0.062099
0.047559 0.165312 0.073994 0.104841 -0.155281 0.982291
0.289483 0.241636 -0.012541 -0.095801 0.148870 -0.984205
-0.107094 -0.112309 0.065685 -0.221376 0.062309 0.973196
-0.164466 -0.310004 0.039938 -0.497291 0.294341 0.816128
0.093227 0.186970 -0.079780 -0.702685 0.481055 0.524233
-0.091262 -0.232614 0.025657 0.386683 -0.376072 0.842049
0.182649 0.132791 0.059818 0.633968 -0.517085 0.575072
0.179997 0.304272 -0.053285 -0.626605 0.516501 -0.583604
0.263124 0.427558 0.012731 0.594399 0.801786 0.061888
