0.051901 -0.380938 0.272989
0.216566 -0.069704 -0.228442
0.123630 0.039624 0.055908
-0.274491 0.125340 -0.081931
0.233129 0.021403 0.166257
0.006891 -0.399274 0.029820
0.021759 -0.280712 0.292715
-0.012905 -0.083760 -0.105320
0.035948 -0.264944 0.001093
-0.048756 -0.347886 0.086564
-0.029825 -0.469640 0.288016
0.296170 0.081580 -0.206705
0.418483 0.205592 -0.046906
-0.207541 0.001982 -0.092248
0.216535 -0.175693 -0.097284
0.219648 0.308900 0.095058
0.338800 0.039293 -0.173050
0.184209 0.216220 0.176861
0.207623 0.152633 -0.206241
0.050483 -0.118858 0.158200
0.258699 0.206646 -0.209930
0.188053 -0.074788 -0.102546
-0.071622 0.174449 0.101309
0.308723 -0.183252 -0.127652
-0.101817 -0.049124 -0.086392
-0.069847 -0.566496 0.031772
0.111973 0.028549 -0.064659
-0.017118 0.258818 -0.115770
0.233666 -0.144014 -0.066134
-0.050352 0.192797 -0.200410
-0.128071 0.035380 -0.151814
-0.275790 0.005733 -0.094692
-0.095968 0.288131 -0.135821
0.104720 -0.465567 -0.026178
0.060680 0.143660 -0.127069
-0.018000 -0.346679 -0.011184
0.255192 0.067303 -0.166567
0.220270 -0.074357 0.254041
-0.134915 0.180657 0.094334
-0.070132 0.016258 0.120529
-0.106697 -0.007270 -0.100087
0.319096 -0.183880 0.196119
0.163874 0.051203 -0.153516
0.003977 -0.131899 0.016404
0.061261 -0.541561 0.173998
0.188071 -0.036687 0.228107
-0.192782 0.092711 -0.020070
-0.024173 -0.426433 0.149230
0.226372 0.146076 0.158795
0.415999 -0.094452 -0.045932
-0.039033 0.177463 -0.160289
0.007883 -0.360483 0.048997
0.007873 0.122795 -0.142290
0.322985 0.219761 0.092597
0.374832 0.161271 -0.130026
0.167562 -0.110016 -0.227098
0.281402 0.161707 -0.088361
-0.271569 0.078255 -0.042217
0.196907 0.258710 0.094955
0.112894 0.050007 0.009738
0.045683 -0.556143 0.183074
0.148081 -0.197414 -0.069344
0.098980 0.052794 -0.119149
0.144046 -0.010088 -0.260867
0.123788 0.065008 -0.158140
-0.117105 0.113263 0.072998
0.225272 -0.061880 -0.227088
0.295285 0.122463 -0.204730
-0.019913 -0.138807 0.087115
0.443441 0.032548 -0.013492
0.009331 -0.207125 0.157745
0.303569 0.150411 -0.195666
0.378365 -0.143187 0.100813
0.205224 -0.345488 0.200890
-0.202143 0.174512 0.072205
0.149838 -0.250295 -0.054984
0.117251 -0.121808 0.132836
0.250419 0.069057 -0.119115
0.247678 0.048258 -0.162901
0.115899 0.119161 0.043085
-0.124762 -0.534656 0.013626
0.272190 0.189784 -0.207007
-0.046742 0.285984 -0.166199
0.144365 -0.429807 0.159828
-0.279448 0.167893 -0.060129
0.128759 0.082058 -0.058436
0.031865 -0.351232 -0.111837
0.192483 0.004966 -0.248656
0.044863 0.145727 -0.184752
0.246408 0.044883 -0.162788
-0.222557 0.017875 -0.108632
0.134967 0.027240 0.103159
0.418335 0.129342 -0.071520
0.111359 -0.177635 0.171718
0.204092 -0.383905 -0.037103
0.176973 -0.405874 0.120859
-0.190159 0.183246 0.034567
0.330249 0.020308 0.177975
0.251496 0.317587 -0.000216
-0.017199 -0.567680 -0.005965
-0.099923 0.075222 -0.127035
-0.227049 0.071777 -0.142117
0.311912 -0.221876 0.135552
-0.270823 0.075494 0.121462
0.428916 0.029559 0.046478
-0.060741 -0.104730 0.035746
0.193433 -0.255810 -0.148213
-0.047801 0.111674 -0.138802
0.001998 -0.416244 0.062335
0.238656 0.120245 0.150844
-0.008231 -0.544891 0.177289
0.032106 0.204820 -0.146794
-0.054479 0.243627 -0.103063
0.078458 0.106078 -0.171694
-0.067686 -0.538657 0.143108
-0.005599 0.268307 -0.033193
-0.039964 -0.428990 0.294915
-0.004311 -0.331528 0.126107
0.320781 0.164182 0.131790
-0.371292 0.178428 -0.009954
0.385960 0.225535 0.007726
0.190052 -0.061978 -0.238350
0.313188 -0.267330 -0.030427
-0.073942 -0.477827 0.119441
0.002486 -0.239184 -0.010777
0.287039 -0.147883 -0.162715
-0.031514 -0.065922 -0.095018
0.188888 -0.134272 0.178196
-0.268083 -0.010152 -0.058292
-0.126838 -0.026985 -0.093697
-0.016948 -0.430492 0.288455
0.414534 -0.100186 0.052768
-0.104764 0.191131 -0.086508
0.362660 -0.161560 0.109811
0.110662 -0.210529 0.275525
0.145387 0.029415 -0.226743
-0.118817 -0.450025 0.137342
0.142288 0.084391 -0.162951
0.088205 0.195379 0.096631
-0.106127 0.163241 -0.155830
-0.055881 -0.327230 0.149962
0.031851 0.104362 -0.171260
-0.398524 0.131668 -0.043289
-0.012506 -0.098136 0.101595
0.376722 0.000504 0.135510
0.221259 -0.168701 -0.094827
0.265663 0.360768 -0.083219
0.008825 -0.410981 0.048836
-0.245621 -0.008826 0.000674
-0.160457 0.168597 -0.184161
0.193004 0.099571 0.069521
0.343362 0.052493 0.158027
0.209949 0.203966 -0.237024
-0.123882 -0.488343 0.263298
0.062404 -0.306915 0.278907
0.346191 -0.194053 0.042948
-0.217411 0.051975 0.117351
-0.117671 -0.058835 -0.083263
0.120573 0.035766 -0.113520
0.156457 -0.019566 0.233387
0.154555 0.118612 0.114133
0.259607 -0.317389 -0.059449
0.188369 -0.124072 0.216531
0.028472 0.137209 -0.182011
0.396497 -0.106707 0.132404
-0.112661 0.007050 -0.104785
0.083722 0.150000 0.071756
0.100667 -0.166162 0.246609
-0.120915 0.021393 -0.149821
0.080187 -0.465639 -0.038507
-0.084403 -0.132949 -0.088250
-0.251369 0.100768 0.095782
0.397339 0.250151 -0.069295
0.125230 -0.221271 0.028038
0.196252 -0.042179 0.261098
0.157716 0.215859 0.142814
0.065016 -0.262492 0.014358
0.259100 -0.065094 0.092349
-0.324225 0.196258 -0.006753
0.294065 -0.289097 -0.017341
-0.154761 0.157515 0.029684
0.060205 -0.558342 0.131917
0.036273 -0.306130 0.011883
0.208147 -0.198984 0.244496
0.384629 0.150798 -0.119956
0.138422 0.136941 0.188118
-0.030945 0.154811 0.090198
0.025422 -0.371468 0.282525
0.034864 0.150070 -0.141350
0.383008 -0.004641 -0.118172
0.091427 -0.277286 -0.165134
-0.179201 -0.030038 -0.127911
0.194677 -0.062995 -0.236885
0.043415 0.190162 -0.163084
0.156402 -0.289185 -0.138905
0.087890 -0.337082 0.266807
0.222288 -0.341629 0.134436
-0.324042 0.135976 -0.066768
0.198326 0.026374 -0.248980
-0.052017 0.206996 -0.205057
0.192716 -0.247956 -0.154458
0.163720 -0.454011 0.013592
0.170889 -0.161316 0.136431
0.031391 -0.401355 -0.023126
-0.107837 0.315494 0.025971
-0.263221 0.020245 -0.115607
0.323597 0.294947 -0.082107
-0.212343 -0.037576 -0.094290
-0.169999 0.101227 -0.187810
-0.064136 -0.433964 0.300458
0.065737 -0.576579 0.041779
0.081802 0.178826 0.044997
0.049890 -0.074694 0.154504
-0.145464 0.266172 0.068417
0.002296 -0.471393 -0.067705
0.006141 -0.366660 0.288475
0.027803 -0.462300 0.270425
-0.017745 0.151335 0.081570
0.242805 -0.122306 -0.032595
0.034075 -0.351185 -0.124274
-0.085681 -0.568391 -0.010624
0.103082 -0.181263 -0.082949
-0.021506 -0.326764 0.089679
0.028534 -0.379240 0.040274
-0.220052 0.071542 -0.046625
0.011764 -0.231079 0.163780
0.001688 -0.401365 0.116161
0.235944 -0.048252 -0.126329
-0.213546 -0.003268 -0.151607
-0.146813 0.186807 -0.198403
0.408202 0.009524 -0.083820
-0.192890 0.110268 -0.188376
-0.007967 0.214128 -0.146667
0.005659 -0.224440 0.127756
-0.253230 0.036984 -0.114287
-0.112538 0.117548 -0.175979
0.140331 0.046294 0.075992
-0.090506 0.282841 -0.185024
0.037582 -0.352220 0.161751
-0.112350 -0.490983 0.096946
-0.112205 0.182963 -0.080357
0.105093 -0.204693 0.033066
-0.121525 0.125064 -0.180336
-0.038135 0.234601 -0.077199
-0.014667 -0.216336 0.150105
0.280818 -0.084946 0.224304
-0.098424 0.226426 0.007983
0.271785 0.350195 -0.143246
0.110200 -0.461282 0.239042
0.020601 -0.214188 -0.007767
-0.104875 0.101983 0.083797
0.055513 -0.146608 0.114777
0.151188 -0.221779 0.261830
0.126682 0.147596 0.191056
0.342339 0.261880 -0.131743
-0.055254 -0.469927 0.136839
-0.211290 0.073840 0.000318
0.158462 -0.131680 -0.217773
-0.133824 -0.486724 0.222315
-0.061997 0.128965 -0.179574
0.156954 -0.244092 -0.058563
0.046191 0.229575 0.031113
-0.043162 0.295944 -0.057314
0.153973 0.117452 -0.007161
0.148440 -0.045046 0.275720
-0.057135 0.248708 0.081891
-0.018193 -0.111562 -0.065747
0.010829 -0.232322 -0.025757
0.131274 -0.414381 -0.052949
0.018342 -0.353937 0.109161
0.245930 0.373535 -0.117287
-0.199641 -0.044803 -0.084520
-0.000470 -0.397994 0.138147
-0.115607 0.192285 -0.031589
-0.110793 -0.045043 0.086978
-0.323826 0.117047 -0.028112
-0.154962 0.206996 -0.082537
-0.139774 0.127865 -0.196664
0.231885 0.170507 -0.193284
-0.035847 -0.274241 0.174567
0.245600 -0.061028 0.042755
-0.207049 0.168127 0.077888
0.215991 0.271323 -0.188401
0.360184 0.173674 0.085818
0.080731 -0.268679 0.040267
0.207758 0.085326 0.068097
-0.075444 0.090009 -0.131809
0.002864 -0.331161 -0.014289
0.158795 -0.401101 0.222927
-0.337839 0.104712 -0.071594
0.273399 -0.122478 -0.183403
-0.094368 0.150176 -0.186596
0.016903 0.174291 -0.194170
0.122695 -0.291665 0.083440
0.228594 -0.097551 -0.216104
0.358989 0.237454 -0.125144
0.256209 0.224592 0.091848
0.219064 -0.096206 0.170637
0.086532 -0.143785 0.264347
0.428839 -0.059432 -0.031348
0.144915 -0.182654 -0.169391
0.123988 -0.178673 -0.069397
0.251245 0.214466 0.147996
0.266685 0.163904 -0.176694
0.227053 -0.327000 0.163573
-0.019233 -0.123975 -0.061688
-0.314709 0.176598 -0.095220
0.078834 -0.242510 -0.057451
0.287229 0.389786 -0.095989
-0.275809 0.028938 -0.014302
-0.025861 -0.427975 -0.068755
-0.282330 0.001576 -0.068337
-0.040441 0.156453 0.099179
0.415548 0.213090 -0.041256
0.332049 -0.230794 0.009705
0.086484 -0.524019 0.099715
0.121335 -0.276304 -0.118463
-0.140520 -0.008927 -0.099642
-0.041206 -0.551178 0.118702
0.018402 -0.120373 0.106727
0.233587 0.347307 0.043576
0.443623 0.064913 -0.008134
-0.126668 0.216894 -0.208364
0.182104 0.112983 0.082303
0.244083 -0.298249 0.184892
0.230167 0.032978 0.173957
0.191201 0.101453 0.192146
0.095588 -0.215317 0.156038
-0.167066 0.084184 0.111276
-0.023694 -0.348915 0.149248
0.076283 0.071245 -0.125245
0.263991 0.173144 0.101426
0.217090 -0.148495 0.249892
-0.278868 -0.007289 -0.122284
-0.070047 0.190071 -0.199573
0.018867 -0.353523 0.203979
-0.046881 -0.477734 0.075174
0.430507 0.059042 0.031757
0.032779 -0.140023 0.071751
0.417098 0.087752 0.046757
0.091276 -0.425658 0.252626
-0.068885 -0.483886 0.294326
-0.155701 -0.031174 0.104387
0.448249 -0.056510 0.023378
0.401645 -0.142035 -0.009090
0.009343 -0.141251 -0.004747
0.115887 0.131115 -0.125711
0.354528 0.244253 -0.127107
-0.306669 0.122049 -0.062745
0.284934 0.181396 -0.055117
-0.039464 -0.257213 0.135586
0.003255 -0.524967 0.256503
0.271430 0.134359 -0.178608
0.221181 0.193467 0.133452
0.195955 -0.184114 -0.030386
0.145065 -0.156863 -0.196037
0.192160 -0.368961 0.179553
-0.211313 0.099360 -0.135808
0.229949 0.072580 0.071645
0.362787 0.308442 -0.059008
0.287686 0.379659 -0.064559
0.069188 -0.325511 0.274617
0.386310 0.254237 -0.024913
0.214099 0.102457 -0.244697
-0.170239 -0.023267 -0.079677
-0.036357 -0.371644 0.024846
0.308691 0.046112 0.189408
0.273782 0.313843 0.053998
0.251519 0.290075 -0.144044
-0.133770 0.074097 0.119384
-0.224365 0.059811 -0.026002
0.000185 0.229693 0.049454
-0.101858 -0.073026 -0.070529
-0.358155 0.171762 -0.095034
0.188123 0.074792 0.123853
0.075640 -0.260415 0.057065
0.210598 -0.320630 -0.086398
-0.026364 -0.284332 0.176761
0.121524 -0.173970 -0.060821
0.233769 -0.035519 0.101124
0.183312 -0.289280 -0.126854
0.017752 0.125061 -0.143003
-0.055954 0.271975 0.077300
-0.050521 -0.304592 0.085103
-0.056183 0.099621 -0.134886
-0.133349 -0.501272 0.177789
-0.022415 -0.448774 -0.049597
0.107121 -0.472061 0.215542
-0.259506 0.009126 0.040950
0.050628 -0.351831 -0.090768
0.014430 -0.213789 0.046813
0.268530 0.180147 -0.172156
-0.013054 0.257982 -0.103629
0.178997 0.249772 0.159053
-0.214051 0.122811 -0.039216
0.323513 0.112359 0.155170
0.405338 0.190385 0.005131
0.247305 0.251523 -0.162656
0.097570 -0.254768 -0.174265
-0.200498 0.045196 -0.117502
-0.050927 0.264787 -0.003515
-0.026997 -0.437536 0.123398
0.065892 -0.236417 -0.042578
-0.176956 -0.014263 0.107343
0.262659 -0.289651 0.098277
0.368759 -0.185509 -0.003092
0.202980 0.137498 -0.251739
-0.106598 -0.469487 0.150985
0.063713 0.071923 -0.160566
0.247832 -0.222617 -0.144869
-0.038013 -0.368999 0.264610
0.146560 -0.157797 0.134840
0.353970 0.278538 -0.111757
0.093093 0.062807 -0.014019
-0.135469 0.105923 -0.137173
-0.156751 -0.079762 -0.093798
0.111052 -0.333012 0.042065
0.179441 0.025039 0.219812
0.187916 0.157794 0.166880
0.430479 -0.087233 0.053316
0.050012 -0.310163 0.282092
0.125640 -0.417427 0.240660
0.051546 -0.397027 0.043091
0.163313 -0.245486 -0.093298
0.036510 -0.132945 -0.098930
-0.100568 -0.471129 0.209418
0.115789 -0.083709 0.266025
-0.021727 0.282103 -0.038793
0.423921 0.140510 0.004184
-0.085425 0.321585 -0.079795
-0.131607 0.123788 0.070469
0.051799 -0.299624 0.282650
-0.195105 0.031278 0.063296
-0.076161 0.108136 -0.172804
0.420404 0.036465 -0.066116
-0.172199 0.093780 -0.185434
-0.027207 0.239945 -0.030416
0.057111 -0.550797 0.172985
-0.083185 -0.501145 0.262027
-0.144120 0.192248 -0.194831
0.045256 -0.446522 -0.068859
-0.097627 0.344590 0.068873
-0.037804 -0.476055 0.038508
-0.079539 -0.341206 0.019200
-0.198483 0.091237 0.001479
-0.232065 0.040388 -0.019976
0.285396 0.195909 -0.011781
0.170194 -0.059734 0.234832
0.046754 0.116847 0.116332
0.268426 0.158575 0.015089
-0.278486 0.018203 -0.036283
0.228559 -0.017465 0.147884
0.175695 0.226982 0.127570
-0.073210 0.165682 -0.156535
0.288128 -0.272061 0.070468
-0.154409 -0.074038 -0.052867
0.040268 0.183154 -0.175271
0.223426 0.076822 0.142650
0.249170 -0.020917 0.238174
0.241949 -0.100471 0.244133
-0.038488 -0.103924 0.151354
0.192661 0.049785 -0.134064
-0.087873 -0.495443 0.277282
0.276128 -0.288133 0.040447
-0.259859 0.156743 -0.043568
-0.047401 -0.472329 0.096640
-0.040046 0.167534 0.064538
-0.135120 0.166333 -0.031406
0.081182 0.073292 -0.016967
0.014359 -0.427965 -0.098089
-0.029484 0.250145 0.018231
-0.259192 0.080706 0.070672
0.196563 -0.370625 0.153041
-0.097479 0.276732 -0.166688
0.026532 -0.345804 0.022110
0.258894 -0.067313 0.085505
0.259697 0.160129 0.096599
0.007509 -0.267546 0.001300
0.219629 0.196646 -0.192846
0.419102 -0.069312 0.093691
-0.058443 -0.314352 0.020210
-0.126377 0.088984 0.116649
0.086639 0.080251 -0.128160
0.060867 0.183832 0.043336
0.135613 -0.281468 -0.090018
0.205072 -0.012965 0.219504
0.156847 -0.432044 0.123151
0.272877 0.136419 0.180579
0.203230 -0.042866 -0.045576
0.429709 0.165956 -0.035993
0.129001 -0.297870 0.081566
0.294907 0.191287 -0.149588
0.315807 0.284692 -0.029837
-0.074099 -0.493347 0.144729
0.234639 0.201921 0.121273
0.242547 0.085636 0.003879
0.197049 -0.207393 0.247354
0.172139 0.050363 -0.262650
0.154694 -0.236866 -0.022527
0.210443 -0.382262 0.046976
-0.036114 -0.127583 0.082693
-0.018870 -0.333042 0.018011
0.177296 0.076638 -0.083739
-0.043530 -0.158861 -0.065496
0.325760 0.291381 -0.132860
0.146660 0.075178 0.248757
-0.110901 -0.452252 0.136995
-0.136493 0.189314 0.097658
0.124214 -0.361810 -0.098064
0.143104 -0.267656 -0.076538
-0.162079 -0.023097 0.117325
-0.042626 -0.351858 0.087055
-0.070671 0.170704 0.102082
-0.115151 -0.045932 0.138466
0.098669 -0.151813 0.166204
0.089297 -0.349954 0.084477
0.384471 0.232190 -0.096822
0.430712 -0.097919 0.014610
-0.029673 -0.126224 0.107814
-0.047636 -0.312932 0.060866
-0.025935 -0.406947 0.293222
0.147503 -0.345370 -0.099850
-0.134246 0.029474 -0.147245
0.130632 -0.457573 0.126514
-0.093969 0.323203 -0.025850
-0.254892 0.072828 0.019048
0.313648 0.287490 -0.001446
0.026517 -0.248143 0.274877
-0.040221 -0.350426 0.274667
0.182365 0.042173 0.214635
0.402448 0.236512 -0.068475
0.194595 -0.044234 -0.084137
0.236727 -0.138709 -0.061819
-0.045300 -0.109181 -0.042890
-0.032022 -0.367522 -0.003245
0.011477 -0.400674 -0.110747
-0.230547 0.044146 0.006687
0.219947 0.212097 0.121324
-0.029181 -0.110874 -0.066001
0.043162 -0.481557 -0.043722
-0.132443 0.174993 -0.013481
0.137921 0.007446 -0.055136
0.062305 -0.117780 0.124336
0.204566 0.051390 -0.081979
-0.057480 -0.326348 -0.018847
0.268849 -0.164956 0.224797
0.192881 0.082989 0.198719
0.184697 -0.167146 0.082142
0.042612 -0.378378 0.089266
-0.106198 0.177955 0.060468
-0.105447 -0.044345 0.138683
-0.054375 -0.109011 0.101419
0.094502 0.063277 0.089317
0.027775 0.251557 0.054828
0.159405 -0.170366 0.189444
-0.008932 -0.453052 -0.015956
0.222066 0.260560 -0.214899
0.259219 -0.151238 -0.179436
0.280794 0.319340 -0.006510
-0.047415 -0.353834 0.066413
0.093929 0.133988 -0.169728
0.256405 -0.098828 -0.013746
0.124666 -0.218843 -0.153364
-0.003855 -0.424210 -0.100930
-0.336771 0.206962 -0.071441
0.070861 -0.355921 0.149948
0.007784 -0.351785 0.251051
0.333188 0.101156 -0.178713
0.038357 0.140485 0.072281
0.159830 0.026820 0.255418
0.251367 -0.079428 0.078170
0.356980 0.165422 0.094796
0.186617 -0.015561 0.001789
0.190855 -0.202003 -0.069437
0.444521 0.029985 -0.009737
0.444132 -0.057505 0.039682
0.124075 -0.064358 0.270773
0.139852 -0.228944 0.264615
0.313870 0.325007 0.001686
-0.264880 0.008003 -0.148530
-0.191211 0.102272 0.006215
0.111868 0.090264 -0.166431
-0.303015 0.072884 -0.014702
0.169672 -0.056438 -0.100620
-0.239193 0.136098 -0.049709
0.248170 -0.024333 0.191269
0.352304 -0.204951 -0.024085
-0.296991 0.165142 -0.003499
0.150507 -0.111677 0.273284
0.067633 0.147631 -0.184530
0.397958 0.010127 -0.100012
0.170986 0.077900 -0.102753
0.097933 -0.244460 -0.153227
0.100259 0.188689 0.048413
0.365568 0.234573 0.030568
0.147794 0.147331 0.090585
0.324469 -0.229986 0.048105
-0.209029 0.018309 -0.031266
0.110544 0.064133 -0.122824
0.326492 0.270817 0.042967
-0.065427 0.258957 -0.032290
0.168230 -0.168505 -0.215885
0.015345 -0.422652 -0.022821
0.178288 0.093552 -0.011233
-0.087299 0.270039 0.088086
-0.040722 0.271771 -0.167118
-0.287523 0.176458 -0.057998
-0.281329 0.136721 -0.052594
-0.025645 -0.144812 0.045518
0.027107 -0.202693 0.002178
0.432702 0.074162 0.020261
-0.148737 0.151734 -0.204031
0.133832 0.042480 0.094639
0.296267 0.203398 -0.146709
-0.241141 -0.036533 -0.107285
0.340631 0.310509 -0.024171
0.384251 -0.173052 -0.061858
0.291362 0.342401 -0.132786
-0.173077 0.135409 0.037790
0.030409 -0.509196 -0.028698
0.288820 0.324415 -0.050214
0.227278 -0.325112 0.139418
-0.060133 0.258590 0.045830
0.108525 -0.514908 0.013922
-0.080736 0.218854 -0.101634
0.251499 0.123463 0.048828
0.124474 -0.199976 -0.187079
0.290556 0.195914 -0.057006
0.131280 -0.312121 -0.132194
0.192966 -0.026036 -0.244416
-0.097706 -0.508766 0.066470
0.087692 -0.186524 0.052856
0.257712 0.119959 -0.225741
0.013846 -0.204641 0.057522
-0.143802 -0.005600 0.071992
0.343666 0.194902 0.090173
0.075857 -0.404103 -0.087360
-0.038755 -0.074765 0.112744
0.002380 -0.339193 0.116890
0.159805 -0.168211 -0.173451
0.307441 -0.198172 0.200303
0.174843 -0.276351 0.243902
0.082119 -0.275057 0.183472
0.356899 -0.072585 -0.131503
-0.026263 0.254109 0.017459
0.384458 0.034881 0.117085
0.342789 0.231886 0.062047
0.089787 -0.261070 -0.136392
-0.045413 0.312168 -0.058389
-0.164909 0.063388 -0.161962
-0.114137 0.076644 0.080377
-0.024889 0.282061 0.076231
0.096748 -0.307390 -0.147702
-0.094960 -0.467756 0.126022
0.136992 -0.473015 -0.003321
0.067400 0.091380 0.082913
-0.103701 0.255454 -0.205056
-0.229597 0.000709 0.013532
-0.169243 0.116112 -0.048118
0.071013 0.059719 -0.063788
0.163990 -0.436455 0.074117
-0.002795 -0.179527 -0.078545
-0.016974 -0.364297 0.294496
-0.073810 0.020089 0.126664
0.092288 0.062381 -0.122302
-0.043170 -0.300598 0.124943
0.096828 0.070053 0.065011
0.145830 -0.187189 0.193901
-0.109064 0.280434 -0.088326
0.263795 -0.310173 -0.063029
0.213147 -0.083013 -0.114761
0.312798 -0.273731 -0.051125
-0.045542 0.090968 -0.149317
-0.031259 -0.136516 0.061664
0.133429 0.114086 0.235850
0.368102 -0.164253 0.074806
-0.207172 0.150225 0.016687
-0.128993 -0.538657 0.017333
0.412807 -0.027037 0.093172
0.176490 -0.155910 0.160187
0.384663 -0.095195 -0.091231
-0.239227 0.122605 0.115407
0.069923 0.106444 0.119098
0.171066 -0.159431 0.147873
-0.016751 -0.310879 0.012242
-0.276527 0.085705 -0.013733
-0.206850 0.175307 0.101865
0.245771 -0.121655 -0.075457
-0.069252 -0.549239 -0.039179
0.406688 0.076697 -0.093366
-0.181410 0.010297 -0.106039
0.138717 -0.379071 -0.077400
0.219289 -0.127900 0.058023
0.396694 0.253025 -0.044757
-0.009506 0.157754 -0.188833
0.282897 0.266550 0.035092
-0.149823 -0.016734 0.065691
0.142273 -0.383595 -0.071940
0.029938 0.164177 -0.190827
-0.377235 0.169680 -0.012863
0.253831 0.061911 -0.172267
-0.244008 0.115343 -0.025527
-0.044155 -0.466207 0.102963
0.208215 -0.027347 0.220226
0.126665 0.071983 0.006248
-0.126793 -0.499444 0.209208
0.262731 0.103247 0.200459
0.001681 -0.185186 -0.033088
-0.033523 -0.342089 0.150277
-0.017556 -0.518754 0.151075
0.158933 -0.126187 -0.203395
0.435442 0.098917 0.001566
0.121286 -0.397135 -0.071827
0.197510 -0.159656 0.048406
0.067551 -0.127825 0.160497
0.048152 -0.280266 0.143085
0.163712 -0.202198 -0.035608
0.210406 -0.369758 0.091160
0.084224 0.169684 0.047431
-0.159426 0.242516 0.065622
0.213252 0.159138 -0.203081
0.228993 0.063449 0.050242
0.135508 -0.099295 0.281014
-0.004984 0.114580 -0.174713
-0.121930 -0.550318 -0.041953
-0.086910 0.167532 0.100734
-0.034660 -0.148770 -0.088689
-0.215835 0.141373 0.035069
0.225122 0.043492 0.142307
0.044930 -0.319635 0.201005
-0.271976 0.049259 0.126733
-0.092864 -0.546265 0.071807
0.100547 0.119181 0.112388
0.267534 -0.206243 -0.143504
0.242710 0.075066 -0.198387
0.347870 -0.221374 -0.072921
0.170128 -0.433243 0.056634
-0.066738 -0.120335 0.043975
0.146112 0.057226 -0.228218
0.411849 -0.001387 -0.075739
0.101655 -0.270006 -0.128465
0.089778 0.124806 -0.033939
-0.103119 -0.522647 0.002705
0.276443 0.380625 -0.051689
0.055416 0.041888 -0.137141
0.043160 0.179661 0.064637
0.162739 -0.457989 0.004191
0.351688 0.246285 -0.129188
0.040776 -0.350882 -0.131885
-0.106183 -0.070626 -0.074111
0.357295 -0.216263 -0.057567
-0.079995 -0.062467 0.079304
0.057568 0.180565 -0.136785
-0.129043 0.031239 -0.148490
0.179554 -0.434355 0.008506
-0.012085 0.109929 -0.173207
0.193736 -0.386038 0.093575
0.224184 -0.035673 0.250748
0.111466 -0.392546 -0.080239
0.124138 -0.495194 0.007002
0.086392 -0.156300 -0.090630
0.367002 -0.144265 -0.093222
-0.295621 0.104258 0.011471
0.236776 0.128786 0.202285
-0.009534 -0.088374 0.116328
-0.200666 0.082927 -0.017530
-0.044049 0.234669 -0.099549
0.169060 0.228775 0.176326
0.148252 -0.439606 0.136850
-0.004346 -0.528673 -0.029373
-0.195474 -0.006402 -0.089051
-0.109806 -0.057422 0.136217
-0.001623 0.249109 0.083481
0.412017 -0.108361 -0.048299
0.421873 0.175549 -0.017251
0.257704 0.082837 -0.137979
0.349935 -0.196802 0.040897
0.235888 -0.314867 0.164841
0.417544 0.201764 -0.056047
-0.108157 0.251322 0.096681
-0.210133 0.154002 0.046477
-0.136715 0.038500 -0.150205
0.429978 0.011570 -0.043254
-0.122535 0.204627 0.044348
0.061362 -0.182462 0.160129
0.200021 -0.379499 -0.043126
-0.063278 -0.514886 0.021323
0.299583 0.327651 -0.071349
0.247785 -0.058801 0.060162
-0.088619 0.225355 -0.041778
0.136641 0.126349 -0.037324
0.190336 -0.100077 -0.237717
0.201688 -0.006376 -0.209642
0.221104 -0.362924 0.065036
0.181419 -0.190995 0.013576
-0.072342 -0.345992 0.023210
-0.069239 -0.120725 0.022384
0.256879 0.313853 -0.128728
-0.080255 0.075994 -0.139215
0.023005 -0.584723 0.040841
-0.204343 0.087724 -0.182765
-0.189506 0.142878 -0.108745
0.177679 -0.321422 -0.103860
0.408249 -0.048293 -0.071297
0.053239 -0.299838 0.231713
-0.174010 0.190184 -0.032876
0.233790 -0.053340 -0.180089
0.038561 -0.232684 0.048789
-0.160366 0.107429 0.072855
-0.027896 -0.508690 -0.052645
-0.042061 -0.354577 0.269269
0.314568 -0.112205 0.203068
0.202854 -0.053573 -0.119157
0.443018 0.046949 -0.016149
-0.011452 -0.516295 0.141365
0.093556 -0.243122 0.161855
0.385508 0.086238 0.098219
0.167758 -0.204649 -0.044443
0.094658 -0.271194 0.075175
-0.089327 0.271957 -0.229297
-0.110842 0.187669 0.058398
-0.013746 0.124431 -0.177954
-0.281141 0.043397 0.116289
-0.178372 0.165982 0.111255
0.106956 -0.267413 0.130156
0.441901 -0.054069 -0.002494
-0.119235 -0.462292 0.246489
-0.042973 0.309791 0.016351
0.373917 -0.087439 -0.107185
0.292432 0.238928 0.045541
0.333052 -0.243816 -0.040833
-0.028515 -0.336079 0.029529
-0.118222 -0.491855 0.097804
-0.088235 0.181957 0.094223
0.178288 -0.010190 -0.250306
-0.030809 -0.042749 0.106613
0.376115 0.177464 0.062746
-0.091071 0.337609 0.007567
0.300234 -0.277782 -0.006453
0.194936 0.267418 0.141444
0.289078 -0.189753 0.210866
0.236481 -0.095271 0.092227
0.332662 0.316471 -0.021295
0.195143 -0.174804 -0.198278
-0.040240 -0.292349 0.002503
-0.243391 0.104763 0.016440
0.175242 -0.098155 0.233814
-0.092884 0.264995 -0.233210
0.160195 -0.451190 0.040057
0.168259 0.239320 0.125388
0.312983 0.284966 0.044421
-0.054786 -0.465356 0.155825
0.054989 -0.096489 0.119886
0.181353 0.003601 0.223985
0.177603 -0.151966 0.168847
0.072249 -0.234236 0.282965
0.277727 0.188014 0.029567
-0.119730 -0.483974 0.171819
-0.061854 -0.461340 0.297740
0.091873 -0.345574 -0.123103
-0.240084 0.110448 0.065373
-0.233197 0.044647 0.000571
0.201080 -0.061734 0.260763
-0.094934 0.003372 0.095514
0.013145 0.192125 0.061254
-0.049773 0.282136 -0.189443
0.039869 -0.372680 0.103328
-0.061279 -0.448977 0.243934
-0.007018 0.259198 -0.057346
-0.080714 -0.076261 0.077384
0.227996 -0.128280 0.015843
-0.175234 0.012447 -0.141789
-0.001060 -0.421253 0.059046
0.215415 0.012103 0.137145
-0.090394 -0.520980 0.181521
-0.080180 -0.491555 0.144040
-0.025155 -0.411319 0.207038
0.374277 -0.182100 -0.016976
-0.161655 0.118800 0.070557
0.342358 -0.008630 0.172785
0.215273 -0.184953 -0.123957
-0.032869 -0.306332 0.135172
0.340190 0.310372 -0.108465
0.027626 -0.215465 0.082734
0.077724 -0.307765 -0.111282
0.006153 -0.334333 0.148650
0.368528 -0.190065 -0.070727
-0.046577 -0.439472 0.208425
-0.093172 0.123973 0.082725
0.184651 -0.158015 0.259857
0.278100 0.161200 -0.061112
0.266729 0.148207 -0.003848
0.063353 0.035589 -0.132967
0.233879 -0.001121 -0.234408
0.277146 -0.183745 0.217703
0.104747 -0.171285 0.170256
-0.105434 0.021412 -0.120054
0.336949 0.216622 0.081090
0.282502 0.232395 0.065157
-0.120975 0.004702 0.128461
0.103439 -0.341026 0.049563
-0.115413 0.042996 -0.116539
0.117050 -0.216862 0.020753
-0.123914 0.268282 0.092352
0.084864 0.070421 0.032682
-0.228615 0.114408 0.006439
0.161249 -0.437824 -0.017830
0.153930 -0.218321 0.046334
0.051018 -0.153875 -0.092049
0.305046 0.125089 0.164415
-0.124465 -0.543770 0.038335
0.196902 0.020331 -0.248913
0.225130 0.200142 0.127187
-0.297241 0.155475 -0.043357
-0.184481 0.152627 -0.103455
0.196113 -0.074105 0.262662
-0.358190 0.119043 -0.003465
0.234029 -0.111477 -0.078985
-0.003065 -0.509182 -0.042978
0.162661 -0.308413 0.243227
-0.013032 -0.391824 0.218790
0.244122 0.035763 -0.172510
-0.028387 -0.138158 0.063847
-0.159811 0.200193 0.104950
0.108203 -0.195884 0.077927
0.422548 0.152050 -0.060375
0.176242 0.109960 0.192674
0.239775 -0.151938 -0.147087
0.246766 -0.085759 -0.131139
0.023411 -0.345659 0.022020
0.360656 -0.147921 0.167221
-0.052639 -0.119395 -0.098341
0.260879 -0.010905 0.230930
0.293870 -0.207772 -0.124268
0.365652 0.285484 -0.094595
-0.091536 -0.476095 0.204653
-0.093635 0.308694 -0.077915
0.073252 -0.224472 0.159118
-0.226170 -0.032885 -0.126177
0.369801 -0.011619 -0.133209
0.174725 0.000750 -0.136994
-0.253337 0.060231 -0.024242
-0.138004 -0.500245 0.124335
0.298424 -0.170601 -0.142660
0.098432 -0.266255 0.107255
-0.037765 -0.452358 0.121739
-0.168809 -0.002797 0.128514
-0.022867 -0.248205 0.167965
0.321509 0.140895 -0.184175
-0.278480 -0.008356 -0.128184
0.064911 0.082897 -0.129086
-0.197695 0.177016 0.055683
0.218882 -0.317332 -0.084365
0.010076 -0.505567 0.270432
0.175843 -0.378113 0.223874
0.216490 0.189100 -0.195908
-0.014584 -0.358299 0.295430
0.261979 -0.137963 0.231633
0.269682 -0.202755 -0.144309
0.115690 -0.220767 0.172324
-0.127441 -0.486384 0.259674
-0.080003 0.224700 0.051966
0.146060 -0.048751 0.276062
-0.102243 -0.104660 -0.046361
0.259976 -0.253961 -0.114056
0.034770 -0.282537 -0.027010
-0.024893 0.155689 0.097452
-0.019432 0.258352 -0.002094
0.193509 0.069410 0.125091
0.342996 -0.177560 0.145733
0.001096 -0.124938 -0.097858
0.279564 0.396125 -0.072718
-0.009191 -0.444964 0.013728
0.128205 -0.243064 0.266490
0.155741 0.134532 0.068992
0.321267 0.132659 -0.185445
-0.344180 0.143393 -0.067529
0.340515 0.269828 0.027579
0.248992 0.384063 -0.109767
0.128246 0.112911 -0.142640
0.221690 0.219447 0.115177
-0.097381 -0.547638 0.059587
0.058114 -0.303148 0.176082
-0.073657 -0.511350 0.071808
0.431142 -0.026845 0.060127
-0.133427 0.160384 -0.060290
-0.386443 0.118579 -0.052919
0.227547 0.098263 0.171266
0.058666 0.165381 0.067943
-0.241025 0.056492 -0.115904
0.136546 -0.443535 -0.026787
0.144394 -0.213526 0.107941
0.205160 0.241946 0.105303
0.323472 -0.126426 0.196968
0.089168 -0.187590 -0.079626
-0.359687 0.110748 -0.014291
0.155371 -0.094726 0.272867
-0.143992 -0.068370 -0.056291
0.227050 -0.019741 -0.133639
0.082673 -0.504434 0.216271
-0.000500 -0.423338 0.049084
-0.077918 -0.395165 0.299057
0.247925 -0.096893 0.032843
0.359994 0.257582 -0.115425
0.363915 0.138320 0.102094
-0.193184 0.182399 0.048763
0.388699 0.013922 0.117336
0.082512 -0.164021 -0.048315
-0.168867 -0.065018 -0.045937
0.279463 0.156462 -0.088487
0.338633 0.286535 0.010701
0.249142 0.315477 -0.132994
0.035030 -0.567010 0.131488
0.055502 -0.376085 -0.070475
0.365029 0.282156 -0.097208
0.231126 -0.269699 -0.117895
-0.157691 0.140395 0.100748
0.012123 -0.425600 -0.018085
-0.305279 0.141414 -0.016643
0.229151 -0.108279 0.080824
-0.068550 0.177691 -0.195519
-0.076428 -0.564662 0.025979
0.247346 0.330364 0.046215
-0.334417 0.097544 -0.016298
0.126040 0.118286 0.078348
-0.057701 0.002132 0.135986
0.200693 0.252661 0.149628
-0.209047 -0.001983 -0.141155
0.189637 -0.020712 -0.129936
-0.353924 0.102643 -0.065906
0.391598 0.262012 -0.071458
0.282559 0.210109 0.059323
0.055170 -0.501207 0.255925
0.142701 -0.046283 0.275351
-0.201193 0.158096 0.010033
-0.208863 0.091018 -0.178003
0.016541 -0.413289 0.280323
0.190604 -0.199410 -0.059130
0.065897 -0.528605 0.145059
0.101550 -0.285867 0.038404
0.030333 -0.294124 -0.023696
-0.078419 0.248676 0.047249
-0.129816 0.134252 -0.146419
0.021593 0.141155 -0.148253
0.216830 -0.031466 0.111843
0.150741 0.209412 0.181272
-0.020082 -0.317617 -0.020510
-0.051045 0.264372 0.044956
0.204468 0.125895 0.177353
0.251012 0.034324 0.227750
0.030592 -0.280101 0.004973
0.294172 -0.228845 0.194236
0.172693 -0.228422 0.253047
0.157473 0.101155 -0.230722
0.259124 0.113544 -0.050280
0.135070 0.036873 -0.244107
0.022936 -0.403359 -0.065205
0.143956 0.075058 0.122471
-0.101831 0.197211 -0.078870
0.141641 0.027030 0.026375
0.285686 -0.212807 0.207894
0.138280 -0.433681 0.204479
-0.042387 -0.305324 0.108456
0.032163 -0.158218 -0.003139
-0.158619 0.167042 -0.199925
0.155143 0.115418 -0.010946
-0.030468 -0.145535 0.027856
0.056309 0.052976 -0.119328
-0.077314 -0.561869 0.039978
0.337942 -0.244431 -0.065936
-0.191021 0.083709 -0.060017
0.159772 -0.362398 -0.079906
0.260448 -0.229307 0.216126
-0.205668 -0.030060 -0.018054
-0.126266 0.101690 -0.135763
0.248667 0.198397 -0.178783
0.064322 0.154350 -0.129807
0.034176 0.138457 -0.182404
0.308392 0.272622 -0.131874
0.135300 -0.044286 0.253658
0.258750 -0.076504 0.053829
0.203588 0.036177 -0.143035
0.083399 -0.179116 -0.083707
-0.064264 0.119728 -0.176561
0.197634 -0.025982 0.223861
0.104633 0.059787 0.129250
-0.052227 -0.464677 -0.067223
0.266420 0.148779 -0.217891
-0.336304 0.181632 -0.060112
-0.057209 -0.012617 0.138934
0.033082 -0.315855 0.152153
-0.025952 -0.237502 0.130650
0.030689 -0.301051 0.253448
0.198603 0.219492 0.167132
0.342244 -0.166650 -0.107675
0.275894 -0.156025 0.222559
0.274439 -0.044689 -0.207312
0.130683 -0.197842 0.138717
0.079481 -0.193121 0.249545
-0.182026 -0.024667 -0.001086
0.163859 -0.050429 -0.099375
0.086930 -0.308076 -0.108338
-0.064713 -0.009314 0.138051
0.015541 -0.337180 -0.011230
0.248117 -0.051014 0.241119
0.079628 -0.556518 0.030473
0.225297 0.060064 0.232086
0.415659 0.080395 -0.078180
0.268601 -0.303423 0.051676
0.300714 0.095975 -0.203239
-0.010895 -0.564803 -0.005736
-0.188612 0.124263 0.119471
0.393900 -0.008388 0.116083
0.140486 -0.074276 0.241228
-0.328217 0.177519 -0.054606
0.154040 -0.233357 -0.136705
0.402496 0.225956 -0.073216
0.199870 -0.081292 -0.087471
-0.101921 0.317796 0.082993
0.098373 -0.248644 0.200198
-0.010063 -0.263147 0.171536
0.139244 -0.438449 0.153430
0.019229 -0.421335 -0.096838
0.414052 -0.127660 -0.039208
-0.013086 -0.045396 0.107673
0.059579 -0.201352 0.155107
0.274461 -0.089069 0.227910
0.365471 -0.148612 0.142201
-0.285701 0.170633 -0.065061
0.373764 -0.163516 -0.077528
0.211327 -0.073827 -0.229230
0.120529 0.071991 0.033751
-0.128352 0.273950 -0.001591
-0.033705 -0.488958 -0.069239
-0.299549 0.193419 -0.067741
0.083928 0.094974 -0.012866
-0.047043 0.302283 -0.102035
0.051346 -0.353832 0.162403
-0.189934 0.189033 0.053312
0.360589 -0.209392 -0.048834
0.116191 0.164388 0.010611
0.238057 0.145287 -0.231557
0.013875 -0.375738 -0.096101
-0.092679 0.169377 -0.157798
0.274615 -0.025783 -0.211071
0.107284 0.037673 -0.014553
-0.122534 0.090437 -0.167141
-0.010471 -0.395312 0.194500
0.192999 0.087389 -0.217078
0.023730 -0.162649 -0.046672
0.231200 -0.310198 -0.083147
0.096020 -0.519362 0.088897
0.310168 0.253893 -0.039672
0.160347 0.228097 0.158041
-0.133346 0.203628 0.103876
0.070506 -0.335155 -0.095540
0.343287 -0.187275 0.110173
0.257802 0.361188 0.004730
0.122328 -0.419931 -0.053181
0.275958 0.280340 -0.172148
0.216236 0.029819 -0.124968
0.072667 -0.258704 0.054343
0.059831 -0.525124 0.122107
0.069573 -0.474261 0.254074
0.300438 -0.151306 -0.151062
-0.110491 0.252816 -0.175756
0.273641 0.397445 -0.115998
-0.343866 0.133275 0.004024
-0.100466 -0.047560 0.086026
0.084551 0.204471 0.080740
0.079597 0.208355 0.077570
-0.016434 -0.128545 -0.095247
0.013394 -0.241030 -0.005546
0.365963 0.142533 0.097370
0.263249 0.389759 -0.127364
0.336111 -0.100714 -0.142588
-0.171074 0.098248 -0.102408
-0.077967 0.217645 -0.118880
0.056755 -0.331347 -0.140733
0.246098 -0.347858 0.000829
0.248644 0.135812 0.114143
0.024214 -0.287437 0.293977
0.421502 -0.065431 -0.044085
0.023954 -0.208064 -0.066192
0.285023 0.078124 0.196485
-0.110231 0.162212 0.097474
0.295757 0.166824 0.150053
0.291664 0.229943 0.044095
0.025221 0.088058 -0.171214
-0.100266 0.180201 -0.146081
0.195483 0.113272 0.223341
-0.158117 0.045618 -0.152588
0.199755 -0.054081 0.225597
0.286014 0.190369 -0.035320
0.178080 -0.414711 0.084563
0.200557 0.074538 -0.003283
-0.030747 -0.129586 0.091040
-0.120044 0.167676 -0.097395
0.173876 -0.005792 0.120751
0.095549 -0.331259 -0.077425
0.195104 0.083113 0.010695
0.226519 -0.136245 -0.005264
0.200327 0.034290 -0.146202
-0.071455 -0.331040 0.086256
0.237398 -0.070818 0.173998
-0.102576 -0.529776 0.121516
0.220078 0.267776 -0.212355
0.040798 -0.262650 0.138349
-0.190264 0.084706 -0.182296
-0.036391 -0.510762 0.271168
-0.038872 0.150331 0.068110
0.094136 -0.130540 0.164021
0.277550 0.139944 -0.125579
0.158583 0.054237 0.216258
-0.001325 0.170673 -0.157967
0.326101 -0.258957 -0.061521
0.180917 -0.020783 -0.041209
0.089163 -0.319442 -0.142214
-0.304100 0.077026 -0.058330
-0.337864 0.215190 -0.037353
0.130308 -0.100899 0.243032
0.208225 -0.094140 -0.111139
0.184763 -0.093406 -0.239544
0.304582 0.335679 -0.009011
0.024984 -0.582175 0.030890
0.230238 0.206526 0.120317
0.323412 0.096181 0.161772
0.230223 0.240636 0.139807
0.100621 -0.105019 0.157478
0.229883 -0.121813 0.029756
0.064413 -0.446850 0.259577
-0.274388 0.019804 -0.053931
0.055260 -0.316609 -0.111594
0.222141 -0.177328 0.242907
0.012118 -0.397819 0.049626
0.262055 0.246950 0.117887
0.285597 0.112164 -0.211597
-0.069388 0.185084 -0.197939
-0.011945 -0.411218 0.145430
0.246138 0.132346 0.124767
0.072592 0.082281 0.087181
0.176568 -0.176546 0.087186
0.127945 -0.451274 0.161287
0.101827 -0.500903 0.138858
-0.086604 0.168825 0.062871
0.030854 -0.583905 0.062281
0.063586 -0.508534 0.252046
0.399104 0.207939 0.001231
-0.076431 -0.069302 0.144519
0.124360 -0.286637 0.109056
0.170557 -0.044923 -0.086999
0.224892 0.021279 -0.126545
0.082631 -0.378958 0.262594
0.020229 -0.532412 0.247144
0.000744 -0.308397 0.180244
0.201372 0.023898 -0.247911
0.236016 -0.131809 -0.034196
-0.071893 0.308599 -0.141714
0.205859 0.209493 -0.195228
0.128867 -0.189187 -0.182737
0.243449 -0.089854 -0.107184
0.181108 0.239557 0.116475
0.352666 -0.180247 0.090918
0.177979 -0.177340 0.077772
0.203583 0.027709 -0.247542
-0.112122 0.253015 -0.165840
-0.077428 -0.057818 -0.123808
-0.036305 -0.445710 0.138284
-0.027511 0.284714 -0.021973
0.221417 0.110111 0.177723
0.425347 0.173001 -0.023368
-0.061249 -0.573720 0.003478
0.100671 -0.260672 -0.172679
-0.181974 0.102732 -0.035493
-0.132367 0.240014 -0.096223
-0.323335 0.171823 -0.057470
0.123376 -0.067852 0.264227
0.238249 0.003386 0.162667
-0.104904 0.160098 0.098061
-0.172409 0.156313 -0.159019
-0.119565 -0.514288 0.063646
0.313435 0.123141 0.158804
0.112011 -0.317411 0.092479
0.233450 -0.152058 -0.193108
-0.055098 -0.055907 -0.084038
-0.167745 0.097317 0.074643
-0.104298 0.037745 -0.118403
0.394695 0.094311 0.081684
0.164906 -0.169305 0.137682
0.091499 0.021165 -0.108825
0.084717 0.023422 -0.149914
0.213059 0.088034 0.099373
-0.067417 -0.105707 0.048979
-0.013781 -0.418646 -0.098030
0.283925 0.151314 -0.144369
0.122391 0.091726 -0.166882
0.351099 -0.119487 0.176774
-0.194933 0.108477 -0.187103
0.414328 0.147459 0.019778
0.101249 -0.300239 0.149201
0.058827 0.175761 -0.135506
-0.041362 0.151369 0.074284
-0.122692 -0.457416 0.118869
-0.038115 -0.491396 -0.019112
0.125164 -0.203520 0.099075
0.319295 0.316541 0.003882
-0.177709 0.140059 -0.185204
0.080957 -0.448735 0.253265
-0.195131 0.099444 0.014648
0.234016 0.029085 -0.105793
-0.230340 -0.015221 -0.048056
0.343308 0.331322 -0.062571
0.013906 -0.216201 0.016550
-0.067002 -0.507353 0.065300
0.413260 -0.082163 -0.053972
0.205436 0.054398 -0.066432
-0.154652 0.202670 -0.099245
0.118959 -0.498505 0.006836
-0.055623 -0.408974 0.265940
0.328350 -0.058755 0.191059
-0.136047 0.082599 -0.164617
0.036335 -0.171804 -0.044920
-0.132320 -0.040261 -0.089377
0.080486 -0.152536 0.274289
0.106719 -0.477581 -0.015741
-0.268467 -0.023605 -0.112909
0.301550 -0.236401 -0.099408
0.217045 0.094407 0.185286
0.378595 0.149443 0.077201
0.125454 -0.214713 -0.155508
0.154857 -0.015333 -0.047881
0.014694 -0.580055 0.022844
0.113057 -0.155755 0.278618
0.005131 -0.408994 -0.107196
0.237474 0.122659 0.157960
0.194245 0.201759 0.179662
0.320041 0.278850 -0.094449
-0.068385 -0.553378 0.084834
-0.060127 -0.108255 0.006168
-0.023508 -0.541715 0.174361
0.155190 0.092300 -0.239595
0.049345 -0.549740 0.010687
0.060227 -0.528522 0.124154
0.142516 -0.242113 -0.002818
-0.196022 -0.050585 -0.096646
-0.156412 0.088388 0.110762
0.256916 0.091368 -0.103272
-0.063238 0.316540 -0.087485
0.060199 0.038677 -0.132822
0.107316 0.133682 -0.122927
0.349335 0.268799 0.017286
0.062925 -0.479005 -0.036528
-0.052092 -0.574972 0.012797
0.279672 -0.143006 0.222068
-0.195077 0.118374 -0.161919
-0.129649 -0.018754 -0.131465
-0.206503 0.105406 -0.142111
0.091191 -0.160981 0.248381
-0.155660 0.223370 -0.021965
0.078702 -0.363675 0.266201
0.050467 -0.458894 0.262974
-0.048140 -0.539756 -0.038418
-0.187410 0.186247 0.029364
-0.072422 0.187197 -0.163567
0.387610 -0.022991 0.127542
0.036262 -0.279020 0.142560
-0.224554 0.138138 0.073248
0.159583 -0.104823 0.271786
-0.102405 -0.498166 0.245638
0.373818 0.136181 -0.135318
0.277299 0.033911 -0.216979
-0.080754 -0.125085 -0.017944
-0.070861 0.266418 0.043951
-0.151841 0.008653 -0.140489
-0.098684 0.116125 0.072994
0.424045 0.098016 -0.062442
-0.028777 0.186782 -0.198382
0.271613 -0.063504 0.229246
-0.081714 -0.047342 0.094061
0.160340 0.005400 -0.221693
0.064785 0.087116 0.023700
0.207027 -0.044157 -0.122224
0.228616 -0.059366 -0.117192
-0.108703 0.140439 0.067848
0.039132 -0.241899 0.013547
-0.187437 0.197126 0.067180
0.395261 0.162050 -0.103532
0.095234 -0.486483 -0.014750
-0.035130 -0.410797 0.253485
-0.309693 0.191026 -0.009425
-0.011123 -0.092557 -0.071937
0.100499 0.091255 -0.129175
0.113459 0.100402 0.116512
-0.004173 -0.119615 0.040799
-0.043172 0.318172 0.051069
0.275334 0.131851 -0.132558
0.244665 0.078358 -0.197398
-0.027682 -0.337111 0.264436
0.003375 -0.364305 0.238696
0.032489 -0.126068 0.125088
0.401671 -0.109446 0.110255
0.208063 -0.164016 -0.016440
0.231791 0.041181 -0.046868
0.199899 -0.349685 0.211097
0.126161 -0.432397 0.238364
0.177984 -0.161223 -0.209746
0.136029 0.101139 0.064952
0.203515 0.069812 0.199936
-0.047595 0.199821 0.057894
0.018370 -0.203437 0.101214
0.148259 -0.208715 -0.154181
0.099676 -0.154919 -0.054537
-0.099845 0.261347 0.094796
0.054050 0.040788 -0.144591
-0.070349 0.079757 -0.151555
-0.132093 -0.457802 0.136228
-0.011582 -0.402495 0.174428
0.355721 -0.181518 0.042761
-0.059384 -0.424487 0.300017
-0.098415 0.189474 -0.122124
-0.004666 -0.308425 0.149577
-0.068357 -0.524648 0.189871
0.382019 0.072301 0.108151
0.438205 0.052012 0.016670
0.321860 -0.217613 0.074151
-0.007455 -0.507497 0.122340
-0.206297 0.006173 -0.071627
-0.153024 0.176594 -0.198566
-0.148997 0.147375 -0.033043
-0.060678 -0.279143 0.144851
-0.091918 -0.001939 0.096661
0.122015 -0.431884 0.240031
-0.265779 0.147780 -0.067593
0.199208 0.053993 -0.091905
0.426380 0.093607 0.025237
-0.044945 -0.365054 0.028247
-0.107814 -0.488885 0.139233
-0.074832 0.226154 -0.103636
0.357120 0.202212 0.069415
0.403717 0.079698 0.073669
0.405995 0.187867 -0.081065
0.132302 -0.450047 0.174913
-0.007607 -0.404869 0.147429
-0.130293 0.286605 0.053221
-0.044490 -0.549176 0.129790
-0.228427 0.064191 -0.160537
0.245050 -0.065159 0.023873
0.023973 -0.250577 0.287514
-0.279421 0.139825 -0.046535
0.153668 -0.463314 0.028001
0.111504 -0.150934 0.166417
-0.086975 -0.477804 0.153611
-0.108166 0.009078 -0.145765
-0.138670 0.098328 -0.134699
0.086604 -0.315031 -0.103809
0.151134 -0.227046 0.028735
0.213662 -0.339335 -0.068749
-0.207203 0.112630 0.121092
0.318647 0.285487 -0.037589
0.216292 -0.188973 -0.182490
0.208561 0.217268 0.165088
-0.099397 0.114970 -0.175096
0.281717 0.077023 0.198926
-0.280780 0.029400 0.015413
0.226080 -0.036802 0.066510
0.175051 -0.007736 0.115734
-0.012381 -0.337904 0.019392
-0.177430 0.007078 0.020170
0.118023 -0.475936 -0.011114
-0.053539 0.206673 0.090354
0.331587 -0.221050 0.046169
0.002673 -0.334521 0.292646
0.226593 -0.045544 0.154040
0.264219 -0.012572 -0.218984
0.278134 0.037577 0.212220
0.286336 0.007664 0.213170
-0.064679 -0.391428 0.302504
-0.143003 0.177272 0.044075
-0.229360 0.037248 -0.043717
0.409677 0.001383 0.090483
-0.186400 -0.027562 0.021960
-0.092357 -0.065134 -0.116189
0.067878 0.159130 -0.167228
-0.116030 -0.493010 0.269569
0.234399 -0.341893 0.071815
0.045530 -0.173329 -0.022952
0.080553 0.152797 0.071105
-0.219159 0.026627 -0.111484
-0.043483 0.302712 -0.037280
0.255739 -0.090640 0.018197
0.172404 -0.206279 -0.148704
-0.359972 0.170965 -0.089317
0.287007 -0.219337 -0.121642
-0.040606 -0.387066 0.303776
0.083212 0.052305 -0.049759
-0.239139 -0.008377 -0.011052
0.056702 0.201655 0.094674
0.260360 -0.293844 0.123820
0.124606 -0.148217 0.276733
0.218770 0.202197 -0.235583
0.101867 -0.317220 -0.057569
0.276966 0.318503 -0.006224
-0.057164 -0.269674 0.161701
-0.039634 0.239947 -0.215398
-0.046574 -0.513493 0.259286
-0.069548 -0.501600 0.096597
0.156932 0.129176 0.051788
0.318581 0.265143 -0.100118
-0.002045 -0.274895 0.140841
0.282125 0.177082 -0.044584
0.279947 0.021563 -0.214497
-0.162049 -0.021408 0.124208
0.167733 -0.118308 0.269150
0.116419 -0.277319 0.120884
0.205926 0.236316 -0.214405
-0.154099 0.177501 -0.189354
-0.231739 0.010378 0.049766
0.376911 0.127885 0.091182
-0.018689 -0.330286 0.084617
0.013016 -0.265749 -0.033540
-0.188215 0.085083 -0.068346
0.077686 -0.251598 0.099167
-0.012872 -0.115676 0.030095
0.120507 -0.361783 -0.099767
-0.009453 -0.403417 0.161197
0.306223 0.088595 0.178282
-0.190188 0.113783 0.041928
0.183988 0.150855 0.171663
0.117286 -0.211535 -0.174717
0.017640 -0.343638 0.021395
0.146027 0.088929 -0.153448
0.029502 -0.284871 0.173868
-0.283532 0.038807 0.063515
-0.239227 -0.031514 -0.093965
-0.233964 0.034360 -0.165774
0.286524 -0.276809 0.061285
0.218939 0.204537 -0.191173
0.220522 0.340858 -0.001260
-0.047128 -0.483749 -0.034245
-0.067493 0.329379 -0.047425
0.036569 0.210377 0.092332
-0.020961 -0.371629 0.065932
0.391363 -0.022463 0.122694
-0.045041 0.256744 -0.013667
0.016380 -0.401772 0.281747
0.198274 0.286239 0.123676
-0.142108 0.224521 -0.094674
-0.199407 -0.051116 -0.118024
0.251504 0.136129 0.192184
0.204535 -0.028480 0.017908
0.322849 0.027509 0.182658
-0.044435 0.166791 -0.156815
-0.021935 -0.090269 -0.113044
0.367418 -0.200125 -0.066858
0.198150 -0.415256 -0.011493
0.233612 0.045386 -0.049106
0.173085 -0.056459 -0.208616
0.077251 0.116130 0.117396
0.408739 0.172192 -0.080767
0.325654 -0.220195 0.065104
0.094349 -0.172347 0.130077
0.104116 -0.319945 -0.077706
0.279688 0.389558 -0.072230
0.081270 0.084006 0.048374
-0.054522 0.180733 0.061474
0.393514 0.244522 -0.078708
-0.018688 0.243060 0.084167
0.152586 -0.418264 0.161895
-0.032926 0.095552 -0.173828
0.100271 -0.349155 0.260622
0.444296 -0.003075 0.021665
-0.246849 0.059155 -0.036122
-0.035155 0.140793 -0.183361
-0.011923 -0.467281 0.282839
0.035442 -0.282960 0.143578
-0.033516 -0.338336 0.283344
-0.047839 -0.344944 0.100741
0.157155 0.091739 -0.258654
-0.066255 0.154659 0.105400
0.199885 -0.393716 0.056181
0.402470 0.245563 -0.056365
0.148746 0.117653 0.195015
-0.058922 0.160636 -0.154848
0.098364 -0.122178 0.165408
-0.058483 -0.453036 0.216529
-0.207498 0.114318 -0.105702
-0.029785 0.285410 -0.027858
0.131088 -0.249152 -0.133495
0.032745 0.196815 0.040434
-0.013628 -0.371489 0.086035
-0.162388 0.212263 -0.022299
-0.055536 -0.533962 0.176270
-0.014537 -0.296194 0.178560
0.023703 -0.205403 0.008605
0.238219 0.323014 0.061489
-0.201837 0.118896 -0.121892
-0.050955 -0.085362 -0.074405
-0.024192 -0.253505 0.134870
0.248479 0.087487 -0.042025
0.278222 0.168415 -0.038663
-0.269061 0.081682 0.015320
-0.020843 0.173653 -0.194069
0.150463 0.071669 0.212058
0.126622 0.070101 -0.115187
-0.018029 0.203248 -0.143986
0.352918 -0.073544 0.171936
0.144642 0.155160 0.178387
-0.133308 0.242560 -0.082094
0.020233 0.191467 0.095594
0.315989 -0.079340 -0.168189
0.124253 -0.480731 -0.004090
-0.135954 -0.497142 0.136216
0.196711 0.004921 0.219279
0.210338 -0.054761 -0.066690
0.159961 0.005190 0.055002
-0.089610 0.229255 -0.023403
0.263868 -0.101210 0.233331
0.135062 -0.270919 -0.050301
-0.042204 -0.450373 0.149545
-0.163154 -0.005786 0.039422
0.121263 0.097221 -0.025521
0.117367 0.015952 -0.142885
0.275256 -0.301751 0.026347
0.221708 0.062350 0.028126
0.372228 -0.172885 -0.074994
0.408733 0.224019 -0.063281
-0.253730 0.152492 -0.036415
-0.265138 0.070697 -0.035702
0.414698 0.085171 0.052383
0.219577 0.350193 0.037443
0.251877 -0.212319 -0.149383
-0.120074 -0.033281 -0.091620
0.166487 -0.057074 -0.112048
-0.017214 -0.312757 0.289091
0.015499 -0.122984 -0.102246
-0.099969 0.270754 -0.173272
0.369829 -0.145668 0.132122
-0.019738 0.296632 0.056136
0.239673 0.368803 0.009296
-0.143122 -0.486657 0.136684
-0.023835 -0.457709 0.287537
0.353079 -0.144655 0.176071
-0.024450 0.178005 0.102031
-0.236861 0.073586 -0.080393
0.041660 -0.546101 0.158068
-0.072778 -0.330078 0.022327
0.126130 0.081896 0.043653
0.046436 -0.225924 0.101455
0.320510 0.168513 -0.180217
0.200578 0.081021 0.023137
0.260170 0.179615 -0.177150
-0.075397 -0.035629 0.103859
0.223919 0.027822 0.240952
0.022608 0.113399 -0.139177
-0.384415 0.120655 -0.067793
-0.138968 0.207088 -0.172677
0.102677 0.061564 -0.157071
-0.059526 -0.393056 0.267814
0.431982 -0.031247 -0.030975
-0.195393 0.134025 -0.105988
0.076903 0.125391 0.110439
0.298302 -0.256416 0.077818
0.035064 -0.113145 -0.080813
0.420552 0.048441 0.056265
0.152266 -0.048747 -0.245246
0.219210 -0.138988 0.019365
0.257931 0.074539 -0.166942
0.208010 -0.095963 -0.224314
0.019328 -0.225027 -0.039949
-0.189826 0.200715 0.093125
0.290492 0.186045 0.142417
0.404229 0.186262 -0.084322
0.117905 -0.499774 0.067417
0.259545 0.164748 0.113017
0.058994 -0.371212 -0.073068
0.169319 -0.023713 -0.093939
-0.170774 0.001312 0.017361
0.072298 -0.184671 0.251000
0.045156 -0.525870 -0.009301
-0.105743 -0.486579 0.140540
0.389197 -0.151463 0.020876
0.102053 -0.318851 0.134122
0.243935 0.383530 -0.067252
-0.092274 -0.558922 0.023161
0.067410 -0.452594 -0.054613
0.211470 0.079181 0.057332
-0.189617 0.024013 -0.147814
-0.015968 -0.113664 -0.104039
0.405728 -0.126232 0.002401
-0.062780 0.241402 -0.106495
-0.065570 -0.328415 0.115847
-0.296744 0.070281 -0.054035
