-0.133493 0.385123 -0.418816
0.101132 -0.483732 0.284242
0.036193 -0.137943 0.133898
0.031096 -0.374639 -0.332783
0.132568 -0.127527 0.119010
0.065678 -0.036528 -0.275936
-0.031043 0.497861 -0.265577
0.040385 0.333689 -0.159757
-0.145867 0.358955 -0.362403
-0.022218 -0.160841 0.166556
0.147093 -0.241200 0.281743
0.127239 0.337076 -0.262475
0.184030 -0.015212 -0.191388
-0.178558 0.068724 -0.266976
0.143574 -0.064730 -0.233689
-0.149473 0.015237 -0.253711
-0.112315 0.423328 -0.196731
-0.095018 -0.440093 0.089860
0.036291 0.479323 -0.368919
-0.120101 -0.290580 0.048798
-0.018445 -0.328399 -0.156200
-0.082225 -0.488532 0.268869
-0.180025 0.236250 -0.382833
-0.057772 0.205425 -0.195069
0.009942 -0.497147 0.169874
-0.112017 -0.239602 -0.015336
0.104260 -0.233796 0.271029
-0.142792 -0.390501 0.395096
0.044173 0.142870 -0.194325
0.119015 -0.205268 -0.053025
-0.027884 0.423919 -0.191754
-0.136551 -0.362993 0.169614
0.113433 -0.110876 0.095121
-0.137954 -0.003924 -0.122466
0.094672 -0.467896 0.103930
-0.054705 0.483865 -0.446521
-0.020512 -0.069238 -0.227794
-0.174285 0.058131 -0.267144
-0.080541 0.265430 -0.184676
0.106658 0.384601 -0.189165
-0.059931 0.252804 -0.187349
0.191906 0.069332 -0.182651
-0.027020 -0.149729 0.150720
0.167090 -0.078096 -0.213300
0.136741 0.060478 -0.148428
-0.134522 -0.354326 0.200951
0.096164 0.017223 -0.094151
-0.042989 -0.002689 -0.063989
0.167968 0.228784 -0.424002
-0.131469 -0.341366 0.177960
0.047336 -0.360254 -0.394062
0.047337 -0.369228 -0.154810
0.141327 0.301732 -0.385893
-0.191821 0.147162 -0.326389
0.164401 -0.362854 0.190088
0.089693 -0.418579 0.017662
-0.139465 0.366382 -0.446521
-0.148081 0.353130 -0.325300
0.048448 -0.366649 -0.037616
0.001477 0.029133 -0.111760
-0.067762 -0.343461 0.017626
-0.029390 -0.365889 -0.305576
-0.024265 -0.008599 -0.055090
-0.142594 -0.389577 0.365552
0.034346 -0.022885 -0.033060
-0.180864 0.232055 -0.307544
-0.004517 0.497357 -0.232585
0.159980 -0.250658 0.251771
0.089531 -0.121055 0.109758
-0.095856 -0.230988 -0.031320
-0.029676 -0.461140 0.067110
0.162323 -0.136416 -0.104618
-0.039937 0.243545 -0.446984
-0.013578 -0.444159 0.026516
0.077101 0.162205 -0.196941
0.043442 -0.483778 0.284122
0.009351 -0.307428 0.374484
-0.148212 0.033190 -0.117411
0.133804 0.320682 -0.170163
0.135913 0.191953 -0.446490
0.104628 -0.479396 0.180993
-0.002030 -0.328393 -0.364843
-0.177606 0.248281 -0.249918
-0.159990 0.032899 -0.265830
0.160736 -0.187462 0.005150
-0.058143 -0.387654 0.017626
-0.029603 -0.354366 -0.174490
-0.119938 0.393159 -0.175374
-0.035943 0.443181 -0.202444
0.156707 -0.434692 0.188742
0.008639 -0.328398 -0.354199
-0.029379 -0.353539 -0.274956
-0.159246 0.314018 -0.446520
-0.131464 -0.014647 -0.304682
0.167932 0.228910 -0.222800
0.021050 0.489552 -0.402461
-0.107720 -0.176311 0.004142
0.160165 -0.226427 0.140679
0.161670 -0.316895 0.336124
0.188302 0.014050 -0.257755
-0.137834 0.376023 -0.323906
-0.164463 0.303535 -0.280716
-0.088093 -0.316729 0.018316
0.191350 0.105571 -0.341864
0.150856 0.277197 -0.376861
0.176551 0.199621 -0.308689
0.025626 -0.270781 0.324124
0.189760 0.125813 -0.223756
-0.072213 -0.134891 -0.128305
-0.111564 -0.235234 0.169324
0.087791 0.032142 -0.409615
-0.052309 0.357664 -0.157287
0.187354 0.146409 -0.313557
-0.129372 -0.332415 0.186956
-0.098897 -0.471687 0.233929
0.183670 -0.017248 -0.122108
0.161673 -0.316935 0.255654
0.167101 0.231465 -0.426253
-0.185151 0.085199 -0.272597
0.077904 -0.498599 0.222204
0.058097 0.161959 -0.446520
-0.005061 -0.076095 0.044766
0.055158 -0.026160 -0.292578
-0.113672 -0.369795 0.017625
-0.097382 -0.459902 0.343855
0.138898 -0.386264 0.017626
-0.074319 0.477809 -0.426784
-0.188766 0.101791 -0.334937
0.108240 -0.444585 0.037686
0.142153 -0.290132 0.351125
-0.113730 0.328089 -0.162603
-0.031035 -0.485004 0.126423
-0.024441 -0.328400 -0.074073
0.160558 -0.288787 0.088548
0.004931 -0.367714 0.444860
0.118549 -0.001036 -0.066465
-0.004078 0.498604 -0.270218
0.030695 0.484159 -0.381657
-0.102104 0.010667 -0.376567
-0.071624 0.479797 -0.347874
-0.050180 -0.158651 -0.099412
0.144096 0.294701 -0.196633
-0.098292 -0.179231 0.192764
0.191850 0.089972 -0.260839
0.169360 0.163717 -0.197039
0.044102 -0.030019 -0.286730
-0.150329 0.347268 -0.204943
-0.063658 -0.456438 0.058772
0.160448 -0.285293 0.053617
0.175854 0.198277 -0.446520
0.053134 -0.059534 0.020544
-0.137252 -0.366076 0.382487
-0.186094 0.201812 -0.234880
0.097982 -0.102435 0.082962
0.094052 0.408838 -0.399107
-0.078379 -0.464624 0.137476
0.047560 -0.371939 -0.159448
0.166596 -0.400386 0.407881
0.137277 0.312060 -0.419581
0.161256 -0.308826 0.321957
0.160849 -0.181021 0.071492
0.160335 -0.281722 0.079297
-0.140856 0.000897 -0.240196
-0.046329 -0.104542 -0.171832
0.023623 -0.398212 -0.147253
0.047329 -0.330267 -0.133679
-0.069361 0.481162 -0.347380
0.003717 -0.056669 0.016338
0.166905 -0.406769 0.308207
-0.003459 -0.228128 -0.033709
-0.077862 -0.119350 -0.149903
0.108401 0.178185 -0.446520
-0.031720 0.497680 -0.232994
0.020686 -0.069746 0.035500
-0.045036 -0.206637 -0.052528
-0.058708 -0.433035 0.017247
0.139192 -0.021026 -0.302159
0.072642 -0.364539 0.445785
-0.029391 -0.337310 -0.321673
-0.033962 -0.379377 0.014805
-0.104047 0.016642 -0.093270
-0.146783 0.126901 -0.446520
-0.120187 -0.291089 0.204646
0.094902 0.013737 -0.088857
-0.149730 -0.422896 0.369689
-0.073814 0.176384 -0.197302
-0.137304 -0.365728 0.348944
-0.138631 -0.372126 0.323128
0.157105 0.020141 -0.098549
0.161103 -0.305921 0.197820
0.161433 -0.157334 -0.092877
0.191078 0.110840 -0.365442
0.061292 0.455135 -0.401395
0.110217 -0.187283 -0.069466
0.142195 0.272070 -0.183134
0.172950 -0.067597 -0.128639
0.097698 -0.116242 0.102834
0.071854 -0.026236 -0.292433
-0.180028 0.164126 -0.197065
0.090617 -0.367264 0.017412
0.174894 -0.058155 -0.228316
0.039300 0.093023 -0.173529
0.180167 0.148650 -0.446520
0.166628 -0.401055 0.212735
0.162766 -0.454618 0.279604
-0.105362 -0.139353 -0.012940
0.011012 -0.492397 0.254887
0.188671 0.017197 -0.262065
0.034475 -0.289805 0.014858
0.136873 0.075932 -0.441249
0.004701 -0.182564 0.197518
-0.135866 0.380152 -0.280785
0.047337 -0.392643 -0.095891
0.179537 0.188113 -0.228976
-0.029391 -0.363930 -0.163540
0.157759 0.258572 -0.350344
-0.044535 0.181023 -0.446518
-0.117521 -0.013168 -0.318211
-0.029493 -0.373531 -0.077718
0.158510 0.256507 -0.411134
-0.029145 -0.328400 -0.175589
0.146221 -0.097462 0.075781
0.175408 0.035238 -0.120216
-0.118456 -0.282739 0.182200
0.075117 0.433521 -0.197068
0.171266 -0.073638 -0.185412
-0.185060 0.208032 -0.303781
0.153622 -0.285264 0.012773
0.020124 -0.140800 0.137980
-0.055551 -0.104549 0.086007
0.181985 -0.026784 -0.059356
0.050942 -0.313958 0.383069
0.034146 -0.387164 -0.214835
0.178720 -0.041578 -0.127863
0.150656 0.090113 -0.172354
0.044185 -0.328399 -0.401647
-0.134390 -0.353727 0.074276
0.091994 0.168205 -0.446490
-0.069218 -0.022970 -0.033555
-0.010978 -0.328399 -0.129071
-0.128561 0.094637 -0.175083
-0.072112 0.331389 -0.160905
0.096496 -0.184515 0.200301
-0.162441 0.037017 -0.134878
0.074236 0.380985 -0.169105
-0.018171 -0.029241 -0.024220
0.126082 0.318086 -0.167384
0.161886 -0.145094 0.091066
0.073481 0.083274 -0.167750
-0.022368 -0.328400 -0.195885
0.000080 -0.328399 -0.057698
-0.135721 -0.007634 -0.204737
0.071793 -0.098217 -0.181490
-0.042393 -0.186948 0.203770
-0.148633 -0.416887 0.404946
0.187219 0.005125 -0.295722
0.039925 -0.328400 -0.138717
0.047337 -0.363915 -0.306823
-0.029390 -0.332871 -0.426395
-0.080609 0.123909 -0.446489
0.100198 0.397950 -0.221826
-0.132645 -0.346353 0.393244
-0.031946 0.017506 -0.388022
0.108771 0.076219 -0.440964
0.143301 -0.465643 0.330864
-0.117255 0.414652 -0.236302
-0.029020 0.217916 -0.446521
-0.116918 -0.274160 0.138409
0.033450 -0.117165 0.104158
0.107944 0.210022 -0.194488
0.132578 0.185386 -0.446605
-0.058510 -0.493447 0.217184
-0.117081 0.002657 -0.072060
0.187224 0.005178 -0.176997
-0.124130 -0.309743 0.274610
-0.146613 0.356992 -0.279491
0.159145 -0.209887 -0.049061
0.007922 0.419353 -0.446499
0.015096 -0.477521 0.106254
-0.127080 -0.352488 0.431224
0.078014 -0.075634 -0.217282
0.160333 -0.213169 0.003456
-0.066409 -0.127162 0.118487
-0.051884 0.055798 -0.143862
0.145889 -0.257741 -0.008987
-0.122389 0.134150 -0.192221
-0.071021 -0.085788 0.058870
-0.082898 0.043087 -0.422048
-0.089954 -0.439401 0.069874
0.054434 -0.320216 0.391714
0.167202 0.231142 -0.367126
-0.147166 -0.415050 0.244968
-0.118689 -0.283869 0.290992
-0.043659 -0.433599 0.385580
-0.180857 0.232095 -0.271196
-0.131893 -0.343158 0.047000
-0.029391 -0.341536 -0.103939
0.026457 -0.328400 -0.088175
0.164598 -0.365993 0.418666
0.170461 0.221119 -0.240663
0.045496 -0.328400 -0.297078
0.097155 -0.133888 -0.129617
0.160226 -0.278257 0.268978
0.166479 -0.100154 0.060862
-0.142260 0.366732 -0.346979
-0.052717 0.491207 -0.411954
-0.107720 -0.176189 0.070764
-0.126361 -0.319404 0.117995
0.162172 -0.138163 -0.076743
0.146915 -0.138646 0.134904
-0.011304 -0.393706 0.426840
0.066849 0.142617 -0.446520
-0.102113 -0.105567 -0.147657
0.160650 -0.192596 0.183558
0.116376 0.363203 -0.359060
-0.165986 0.227883 -0.191768
-0.111967 -0.238908 0.186573
0.066727 -0.409281 0.413323
0.163613 -0.350468 0.272278
0.026409 -0.198543 -0.059465
-0.191889 0.135322 -0.427768
0.064928 0.385784 -0.171562
-0.139388 -0.001525 -0.159266
-0.102398 -0.076205 0.035174
-0.115546 -0.265773 0.040701
-0.147714 0.012292 -0.104441
-0.124036 -0.308881 0.173542
0.107405 -0.492853 0.253006
-0.075029 0.413233 -0.446843
-0.065399 -0.253494 -0.012107
0.123930 -0.350626 0.428963
-0.106842 -0.160975 0.092450
0.120399 -0.024126 -0.296392
0.048061 0.143949 -0.446520
0.041509 0.474816 -0.290536
-0.190108 0.108830 -0.240429
-0.035462 0.193544 -0.196353
-0.011005 -0.328400 -0.402295
-0.039640 -0.018460 -0.307371
0.030773 -0.472730 0.314395
-0.161328 0.314415 -0.184498
0.190861 0.042605 -0.251289
-0.189716 0.117019 -0.186378
-0.029410 -0.371917 -0.092100
0.013038 0.493626 -0.382981
-0.058728 0.439861 -0.200595
0.175925 -0.053681 -0.194256
0.166359 -0.395488 0.163779
-0.174474 0.262651 -0.413226
-0.180963 0.074735 -0.316840
-0.004152 0.470490 -0.446520
0.060382 -0.125489 0.116092
-0.118172 0.052598 -0.429654
-0.116358 0.121204 -0.187401
-0.160485 0.317175 -0.443299
-0.091007 0.070989 -0.158421
-0.006859 -0.019750 -0.038373
0.160104 -0.265186 0.050790
0.129102 0.111876 -0.446139
-0.132132 -0.365709 0.446156
0.160728 -0.294191 0.319639
0.053656 0.285581 -0.179472
-0.029410 -0.358729 -0.106440
0.150703 -0.282100 0.340024
0.019461 -0.362327 0.443116
-0.027995 0.498681 -0.402774
-0.104809 -0.133996 0.123523
-0.082241 -0.353926 0.432964
-0.106232 -0.151424 0.051477
0.130051 -0.440686 0.099216
-0.165962 0.297707 -0.350135
-0.107570 -0.201279 -0.056516
-0.015610 -0.328399 -0.241745
0.163860 -0.354346 0.140385
0.084158 -0.482382 0.288258
-0.101403 0.441943 -0.431291
0.172841 -0.068060 -0.060823
0.092978 -0.074435 0.042347
0.048265 -0.384015 -0.041326
0.177629 0.195720 -0.323866
-0.109892 -0.468485 0.258640
0.167387 0.230572 -0.294293
0.131376 -0.156771 0.160757
-0.020342 0.143375 -0.194435
-0.037427 -0.432342 0.387221
-0.132578 0.122251 -0.446703
0.049622 -0.005407 -0.337210
0.116234 0.363534 -0.228292
-0.102341 -0.076411 -0.214381
-0.123332 -0.306242 0.359938
0.097142 -0.472420 0.315164
0.080784 -0.143282 -0.117646
-0.023658 0.298545 -0.446520
0.029719 -0.383641 0.434164
-0.110239 -0.446485 0.176711
0.095874 0.028113 -0.404832
0.181970 0.176842 -0.440828
0.137600 -0.345343 0.422527
-0.007953 0.191059 -0.196576
0.055264 -0.297995 0.017221
-0.097832 -0.389133 0.017624
0.118053 -0.029539 -0.286731
0.180611 0.046157 -0.425052
0.111534 -0.351658 0.430217
0.144168 -0.149051 0.149751
-0.002348 -0.395256 -0.163469
-0.156428 0.330464 -0.243861
0.116030 -0.223833 -0.037712
0.156534 0.150396 -0.195674
0.160015 -0.245235 0.266424
0.165819 -0.385247 0.409597
0.049261 -0.062185 0.024434
-0.138826 0.027524 -0.109436
0.068333 -0.104237 -0.172283
-0.132503 -0.358469 0.438462
0.165732 0.235660 -0.260130
-0.164226 0.304460 -0.277849
0.035707 0.378246 -0.167706
0.157003 -0.176236 -0.080452
0.044608 -0.290263 0.351304
0.126058 0.340009 -0.261300
0.093872 -0.309165 0.376772
-0.016576 0.247524 -0.446520
-0.088265 0.280946 -0.446490
0.025020 0.277254 -0.181781
-0.029422 -0.329437 -0.266462
0.056980 -0.446115 0.031732
-0.041743 0.423875 -0.446520
-0.142397 -0.431235 0.388666
-0.176051 0.083704 -0.442050
-0.096385 -0.247263 0.290479
-0.012109 -0.408976 0.413545
-0.175535 0.061279 -0.358369
0.079136 -0.008330 -0.330071
-0.163784 0.106640 -0.181663
-0.070668 0.317473 -0.446521
0.160282 -0.216751 0.185885
0.000837 -0.498843 0.220200
0.115405 0.365594 -0.421659
0.146178 0.289313 -0.191515
-0.144569 0.328905 -0.446528
-0.103618 -0.122454 -0.139504
-0.107759 -0.176977 0.144250
-0.076193 -0.032100 -0.019967
0.024201 -0.491846 0.257015
-0.024531 0.030379 -0.113558
0.062705 -0.295999 0.359139
-0.146516 -0.407628 0.249781
-0.038811 -0.449464 0.040325
-0.153314 0.166431 -0.446521
0.092285 -0.410111 0.017626
-0.095116 0.212080 -0.446985
0.166679 -0.097558 -0.084440
0.104540 -0.258542 -0.007821
-0.006582 -0.267522 0.000337
-0.191160 0.114382 -0.423220
0.164551 -0.365300 0.206471
-0.115938 -0.268167 0.042688
-0.081533 -0.268718 0.321200
0.038389 -0.493200 0.251463
-0.188101 0.187055 -0.216760
-0.024093 -0.291350 0.015401
-0.077034 -0.482979 0.214789
-0.014106 -0.463688 0.335114
-0.158123 0.324912 -0.282044
-0.013710 -0.328399 -0.298122
-0.187353 0.192902 -0.243867
0.149427 -0.454537 0.353009
0.061474 -0.478065 0.300594
0.054061 -0.374216 0.017626
-0.072553 -0.003381 -0.342425
0.006517 0.311131 -0.446528
-0.178296 0.068066 -0.396679
0.099437 -0.298500 0.017319
0.059754 -0.243929 0.285667
0.061983 -0.442724 0.372568
-0.159409 0.114467 -0.185243
0.053788 -0.080428 -0.209692
0.040679 -0.335189 0.410038
0.190504 0.037367 -0.400659
0.017616 -0.144285 0.142953
0.160486 -0.203289 -0.002201
-0.012111 0.499196 -0.282600
-0.153741 0.338235 -0.223687
0.029251 0.385688 -0.171516
0.162435 -0.331715 0.037229
0.147137 -0.330189 0.403808
-0.053011 -0.360653 0.017663
0.075811 0.067904 -0.438399
-0.105011 -0.062572 -0.111269
0.004452 0.336341 -0.158392
0.019537 -0.087639 -0.198239
0.165092 -0.107330 -0.060840
-0.096677 -0.399120 0.017626
-0.088358 -0.066799 0.031190
0.011716 -0.387680 -0.211183
0.012637 -0.233465 -0.029249
0.024995 0.252225 -0.446520
-0.103410 -0.229885 0.265393
0.039667 -0.427159 -0.025251
0.046451 -0.199344 -0.058279
0.163047 -0.378212 0.066750
0.012015 0.044271 -0.131707
-0.005086 -0.159119 -0.098885
-0.134378 0.342959 -0.446522
0.164316 -0.361495 0.426811
-0.047878 0.125903 -0.189708
0.047618 -0.370687 -0.063077
-0.009573 -0.032896 -0.281764
-0.029504 0.304064 -0.173269
0.161788 -0.319159 0.354620
0.100359 0.215212 -0.193721
0.164385 -0.362568 0.273888
-0.071753 -0.115497 0.101765
0.055229 -0.438962 0.378142
-0.136261 0.221781 -0.192743
0.186135 -0.003293 -0.140787
-0.119938 -0.289890 0.233166
0.086238 0.068645 -0.438716
-0.189878 0.173180 -0.382105
-0.128049 0.048933 -0.427048
0.163003 -0.340938 0.218114
0.128175 -0.194809 -0.062387
-0.108571 -0.193438 0.212998
0.008360 0.066117 -0.154229
0.164533 0.209922 -0.446967
0.165461 0.187674 -0.446966
-0.009824 -0.328400 -0.276681
-0.041245 -0.079091 0.049131
0.133314 -0.011788 -0.321627
0.044685 -0.374651 -0.332640
0.067687 0.329809 -0.446520
0.028848 -0.171699 0.182028
0.081105 -0.144281 0.142948
0.159880 -0.420290 0.156486
0.094632 -0.194695 -0.062493
0.053078 -0.055709 0.014952
-0.002683 -0.328400 -0.053860
-0.182079 0.225934 -0.278654
-0.133842 -0.444833 0.271164
0.095389 0.098460 -0.177366
0.013681 -0.393232 -0.175254
-0.161503 0.042631 -0.129758
0.088333 -0.317637 0.387843
-0.117788 0.363309 -0.160135
-0.100821 -0.087620 -0.138786
0.188452 0.015318 -0.308653
0.160822 -0.182359 0.157802
-0.107171 -0.166145 0.066473
-0.003927 -0.196310 -0.061017
-0.105073 -0.136552 -0.027324
-0.161485 0.035410 -0.323967
0.034809 0.305833 -0.446520
-0.093524 -0.456968 0.153051
0.046034 -0.071210 0.037639
-0.112269 -0.241978 0.264456
0.139474 0.306421 -0.379118
0.160157 -0.270467 0.316762
0.191599 0.053517 -0.177293
-0.130327 -0.464407 0.333560
0.114336 -0.022617 -0.034092
-0.106208 -0.151050 0.023378
0.063435 -0.473580 0.312285
0.179621 -0.037676 -0.186650
0.034695 -0.377701 0.438312
0.123812 0.082320 -0.441850
-0.027531 0.393645 -0.446520
0.141141 0.302200 -0.353331
-0.037177 0.007901 -0.079999
-0.000156 -0.478463 0.107556
-0.121068 -0.031671 -0.159945
-0.110907 -0.228958 0.039675
0.167674 -0.430592 0.247438
-0.077469 -0.451890 0.078526
0.172149 0.215567 -0.351958
0.018988 0.407060 -0.182670
0.178320 0.193216 -0.414815
-0.029391 -0.342548 -0.185950
-0.029051 0.414156 -0.446520
-0.081685 0.100628 -0.444507
-0.139056 0.094639 -0.443637
-0.005609 -0.499011 0.182849
0.129481 0.010657 -0.084181
-0.138429 0.234371 -0.190689
0.162416 -0.331321 0.089107
0.084604 -0.042889 -0.003977
-0.032587 -0.359653 -0.002074
0.113272 0.363196 -0.160078
0.192037 0.076120 -0.381518
-0.071526 0.010144 -0.083403
-0.043020 0.244213 -0.446520
0.124699 -0.006316 -0.334994
0.062108 0.454305 -0.272860
-0.029390 -0.332050 -0.287266
-0.164788 0.302272 -0.424856
0.010181 0.029092 -0.405428
-0.029390 -0.380220 -0.110102
0.127893 -0.470408 0.211999
-0.135834 0.380221 -0.364345
-0.121539 -0.297614 0.324768
-0.076583 0.030763 -0.407835
0.188206 0.013297 -0.127316
-0.175213 0.060683 -0.157831
-0.044793 -0.419496 0.402713
-0.028444 -0.376560 -0.310043
0.105641 -0.324566 0.396722
-0.050308 0.241453 -0.189474
-0.124049 -0.406399 0.107816
-0.080157 -0.131603 0.124841
-0.029391 -0.388222 -0.176038
-0.105637 -0.140201 0.037415
0.191754 0.061512 -0.393816
-0.127937 -0.020422 -0.235496
0.137890 0.218311 -0.446520
0.101731 0.034873 -0.119717
-0.071769 0.348718 -0.152790
0.047337 -0.375432 -0.110554
-0.112527 -0.244459 0.047574
0.192104 0.081743 -0.378011
0.048219 -0.497369 0.231017
0.039335 0.285794 -0.179410
0.108166 0.381504 -0.209848
0.176832 -0.049754 -0.183832
0.087748 0.138352 -0.446520
-0.096936 -0.244677 0.286747
0.185332 0.159941 -0.348151
-0.019583 -0.152992 0.155369
-0.005897 -0.233623 -0.029116
-0.179823 0.237294 -0.279931
-0.058727 -0.188528 -0.068271
-0.060605 0.300009 -0.446520
0.179756 -0.037089 -0.181083
0.050681 0.306753 -0.172216
-0.097620 0.448150 -0.327738
0.051495 -0.422531 0.010242
0.051548 -0.248489 0.292245
-0.100291 0.151261 -0.195804
-0.191114 0.157297 -0.388751
0.095194 0.313115 -0.446521
-0.029377 -0.354313 -0.312461
0.085475 0.342467 -0.446606
-0.003128 -0.063345 -0.235735
0.185124 -0.010492 -0.198911
0.162673 -0.335637 0.103703
-0.029390 -0.366046 -0.301668
-0.177989 0.222207 -0.446520
0.191165 0.047020 -0.271915
0.160115 -0.232775 0.122135
0.045372 0.471481 -0.370298
-0.062722 0.017831 -0.388855
0.189880 0.028403 -0.297743
0.105453 -0.061671 -0.238207
-0.096497 0.015865 -0.092062
-0.095118 -0.116527 -0.154078
-0.111407 -0.233691 0.011885
0.162852 -0.338570 0.387383
0.166578 -0.098171 -0.019734
0.088973 0.417639 -0.260085
0.149050 -0.234156 0.271547
-0.029390 -0.340681 -0.253211
0.092763 -0.324287 0.396367
-0.029390 -0.352176 -0.300621
0.145978 0.014515 -0.382605
0.160205 -0.273675 0.155014
0.135271 -0.201884 -0.056018
-0.116240 0.203521 -0.195301
-0.116238 -0.040036 -0.202699
-0.021923 -0.337055 -0.430748
-0.062276 -0.026917 -0.027679
-0.024977 -0.479093 0.110138
0.059789 0.203065 -0.195357
0.159613 0.253431 -0.340600
-0.049827 0.009042 -0.372367
-0.094956 0.226863 -0.191932
0.155648 -0.017496 -0.308826
-0.047245 -0.490594 0.261634
0.155311 0.265337 -0.415793
0.173722 0.145445 -0.194328
-0.191262 0.116826 -0.199486
-0.065421 0.081271 -0.166381
0.118795 -0.424801 0.396647
-0.111919 -0.238625 0.102487
0.114791 -0.138688 -0.123422
-0.183292 0.080565 -0.309390
0.175161 0.204657 -0.442905
0.149471 0.271843 -0.182686
0.167523 0.230154 -0.267379
-0.105675 -0.059112 0.007215
0.160148 -0.269929 0.268278
0.003245 -0.426004 -0.029238
-0.057628 -0.089052 -0.196246
-0.102088 -0.077778 -0.007445
0.123060 0.141146 -0.446520
0.017785 -0.454645 0.052918
0.111982 -0.456935 0.100396
0.088175 -0.291855 0.015576
-0.111275 0.410557 -0.184516
0.164874 -0.017080 -0.042370
0.057838 0.334253 -0.446489
0.040604 0.362198 -0.159572
0.117219 -0.335026 0.409836
-0.134469 -0.354074 0.323414
-0.044613 0.301055 -0.174446
0.047337 -0.333114 -0.180098
0.189368 0.022956 -0.279606
-0.084886 0.151041 -0.195773
0.123033 -0.165863 -0.091413
-0.028882 -0.106689 -0.168658
0.108466 -0.287422 0.347395
-0.131870 -0.013992 -0.275302
-0.141304 0.072920 -0.160022
0.065143 0.131732 -0.191504
-0.022777 0.042231 -0.421076
-0.027119 0.095399 -0.175539
-0.050517 0.492534 -0.299969
0.111002 0.183144 -0.197066
-0.155255 0.024947 -0.105987
0.002247 0.498138 -0.443951
-0.087149 -0.226548 0.260561
0.098790 -0.010287 -0.052553
0.115919 -0.403231 0.418961
0.155585 -0.426830 0.394198
-0.191302 0.154577 -0.250987
0.160288 -0.216400 0.168044
-0.132640 -0.346328 0.174396
-0.018142 -0.486181 0.276610
-0.124366 -0.450502 0.247993
0.149264 0.084696 -0.168721
-0.192105 0.143059 -0.367680
0.167297 -0.414779 0.303229
-0.176559 0.063721 -0.352853
-0.107599 0.431640 -0.335679
0.115396 -0.488942 0.254271
0.126930 -0.343984 0.420870
0.006512 -0.245482 -0.019091
-0.128050 -0.326855 0.399620
-0.106457 -0.154933 0.067137
-0.169826 0.282678 -0.182599
0.059640 0.457061 -0.379979
0.078882 0.373095 -0.446520
0.128986 -0.353912 0.432946
-0.140891 0.000956 -0.091175
0.096177 0.359125 -0.158026
0.164475 -0.111186 0.053819
-0.087908 0.065714 -0.153901
0.162643 0.245105 -0.236272
-0.012760 -0.486537 0.130159
0.178060 -0.044436 -0.256147
0.010371 0.353743 -0.155315
0.118075 -0.030950 -0.021660
-0.128892 0.393543 -0.232237
-0.013251 -0.070698 0.036892
-0.029521 -0.376035 -0.095543
-0.099584 -0.416803 0.025603
0.072829 0.441450 -0.347180
0.160157 -0.271119 0.277820
-0.147716 -0.421961 0.266976
0.129236 -0.168600 0.177612
0.039045 -0.460620 0.066832
0.104903 0.112474 -0.446223
0.161250 -0.308773 0.055882
-0.028313 -0.220169 -0.040358
-0.064555 -0.486137 0.276724
-0.123832 -0.308477 0.170659
-0.037696 -0.259566 0.308159
-0.029388 -0.374702 -0.248464
-0.049015 -0.212483 -0.046840
0.153946 -0.300774 0.017772
-0.046434 -0.299981 0.365080
-0.107799 -0.177411 0.167274
-0.008040 -0.057785 -0.243946
0.106624 0.384670 -0.395437
0.152774 -0.404835 0.078548
-0.180081 0.235966 -0.308099
-0.001953 -0.368084 -0.424488
0.124985 0.091992 -0.173486
0.021184 -0.076706 0.045657
0.180423 -0.034153 -0.191845
0.181602 -0.028909 -0.204868
0.105255 -0.143233 0.141448
-0.029390 -0.330963 -0.111446
0.096971 0.214130 -0.446521
0.116262 0.363469 -0.290010
0.005370 0.386295 -0.446521
0.107645 -0.483410 0.207452
0.146124 0.289452 -0.292003
0.049122 -0.482717 0.287262
0.100114 -0.206079 -0.052343
0.003782 -0.494414 0.246480
0.184917 -0.010185 -0.242868
-0.109580 -0.051877 -0.151772
0.007114 0.496702 -0.314817
0.006741 -0.389229 -0.203105
-0.131361 0.158551 -0.446528
0.178121 0.129861 -0.446521
0.007764 0.416701 -0.446520
0.032948 0.371439 -0.446605
0.018254 0.209763 -0.194524
-0.060616 -0.143438 -0.117454
0.090726 0.408504 -0.183433
0.076489 -0.021756 -0.035376
-0.007889 -0.211215 0.238493
0.158170 0.257434 -0.359638
-0.021849 -0.468570 0.324285
0.186751 0.001332 -0.152929
0.006553 -0.493671 0.249521
-0.037591 -0.185449 -0.071224
-0.115991 -0.386913 0.017626
-0.029390 -0.350824 -0.350751
-0.013197 0.317870 -0.167480
-0.182379 0.078281 -0.405067
-0.102641 -0.074904 -0.082442
-0.130913 0.071462 -0.158235
0.186180 -0.003058 -0.295185
-0.064254 -0.460922 0.080328
0.003951 -0.328401 -0.060221
-0.118996 -0.285309 0.236680
0.085793 -0.379491 0.437122
0.150554 -0.101737 -0.175979
0.013033 -0.380419 0.436504
0.181824 0.177515 -0.401610
0.191274 0.107923 -0.323601
0.161497 -0.155577 0.074697
-0.128857 0.393613 -0.344017
0.190503 0.117379 -0.378811
0.043319 -0.165764 -0.091521
-0.129243 -0.359024 0.040163
-0.008985 0.001522 -0.355231
0.151321 0.266985 -0.184321
0.142478 0.298830 -0.341734
-0.131630 0.388534 -0.415772
0.023297 -0.439573 0.013769
0.165399 -0.378720 0.095637
-0.100207 -0.361997 0.017626
-0.086701 0.383155 -0.170217
0.100554 -0.474786 0.146977
0.047337 -0.332778 -0.408211
-0.122101 0.406028 -0.231315
0.026264 -0.440675 0.016877
0.013160 0.112834 -0.446278
-0.162389 0.036912 -0.378353
0.035314 0.461874 -0.446521
-0.093283 0.374742 -0.446520
0.105383 0.387235 -0.349553
-0.067684 -0.476161 0.305632
-0.135591 -0.358867 0.357087
0.091433 0.413375 -0.409074
-0.129790 -0.395454 0.108741
-0.082509 -0.356239 0.435779
-0.157922 0.029415 -0.320305
0.058988 0.457708 -0.314119
-0.102312 -0.108214 -0.050320
-0.160336 0.190830 -0.196596
-0.129867 0.059663 -0.434769
0.191689 0.058118 -0.307290
-0.137310 -0.366331 0.256191
-0.192038 0.146940 -0.238314
-0.087604 -0.464939 0.167126
0.137193 0.026165 -0.107473
-0.098391 -0.398022 0.423372
-0.181185 0.230457 -0.365701
0.129584 -0.268659 0.321116
-0.114111 -0.336142 0.411214
-0.184163 0.213418 -0.371708
-0.028642 -0.092360 0.068409
0.169844 0.223017 -0.375551
0.182139 0.176053 -0.327576
-0.072063 -0.124557 -0.142242
-0.185250 0.085446 -0.254507
-0.017344 -0.455159 0.351890
-0.111667 -0.236248 0.268234
0.191837 0.065807 -0.306113
-0.031471 -0.362494 -0.018177
-0.172893 0.056383 -0.283638
-0.056847 0.292358 -0.177412
-0.111004 0.425649 -0.387756
-0.139487 -0.375882 0.147686
-0.029390 -0.366792 -0.323688
0.082731 0.005472 -0.076309
0.019514 -0.457947 0.346568
-0.133029 -0.347351 0.317801
0.166091 -0.389954 0.329166
-0.029391 -0.388593 -0.172316
0.013392 0.493446 -0.239034
-0.169553 0.050191 -0.202891
-0.087932 0.459094 -0.211345
0.129981 0.102954 -0.444844
0.077363 -0.030893 -0.021762
-0.062157 -0.146347 -0.113854
0.190214 0.033223 -0.361900
0.019396 0.076383 -0.440988
0.003452 0.078910 -0.164620
-0.110684 -0.412419 0.410188
0.033444 0.137974 -0.193266
0.012106 0.023125 -0.396922
-0.158353 0.324156 -0.177322
0.074850 0.221971 -0.192678
-0.109172 -0.203927 -0.029566
0.101529 0.395199 -0.408225
0.162100 0.072328 -0.440136
-0.033410 -0.497495 0.230235
-0.113617 0.335287 -0.158466
0.014786 -0.498121 0.226083
-0.029390 -0.375478 -0.181932
0.074958 -0.198514 0.220298
-0.117511 -0.276904 0.291602
-0.024109 -0.396758 -0.155109
0.068769 -0.081228 -0.208430
-0.024984 -0.221518 0.253332
0.090667 -0.484682 0.281329
-0.106280 -0.476980 0.281173
-0.098761 0.446278 -0.379851
-0.068319 -0.284987 0.344022
0.047337 -0.348463 -0.412466
0.151978 0.274289 -0.275115
-0.139845 0.371796 -0.200521
-0.121037 -0.355054 0.434330
-0.134431 -0.353935 0.176410
-0.103923 -0.068233 -0.058018
-0.034664 -0.224177 -0.037005
0.112046 -0.271040 0.324491
-0.017648 0.366762 -0.161874
-0.191996 0.144530 -0.375241
0.045228 -0.114232 0.099947
-0.031026 0.387078 -0.446520
-0.116475 0.220900 -0.192379
0.000699 0.188974 -0.196764
-0.158774 0.030856 -0.138637
-0.111011 -0.229947 0.219065
0.004728 -0.102991 0.083765
-0.073150 -0.489654 0.233251
-0.190222 0.170173 -0.293788
0.102663 -0.154425 -0.104638
-0.099377 0.367938 -0.446520
0.108299 -0.415097 0.017626
0.160686 -0.190463 -0.060282
-0.109995 -0.217032 -0.023341
0.063610 0.449560 -0.446522
0.123646 -0.197958 0.219502
0.019070 -0.328399 -0.352456
0.054725 0.409692 -0.184070
-0.110172 -0.050825 -0.251714
0.066190 -0.112365 -0.160973
0.108070 -0.464211 0.122621
-0.119288 -0.421961 0.130534
-0.044558 0.421392 -0.189824
0.099260 0.311438 -0.446520
-0.133882 -0.453360 0.355082
-0.032450 0.239505 -0.189818
-0.133618 0.224229 -0.446520
-0.055423 -0.351648 0.430202
0.174869 0.093760 -0.443510
-0.088581 0.064998 -0.437308
0.121162 -0.383935 0.017624
0.160210 -0.431208 0.192821
0.046345 0.285719 -0.179432
0.162631 -0.335097 0.277957
-0.045549 -0.435738 0.382687
0.152304 -0.313010 0.381838
0.049261 -0.295174 0.358020
0.108137 0.232230 -0.191053
0.154546 -0.009461 -0.053794
-0.147295 0.011597 -0.148540
0.155039 -0.319551 0.390346
-0.086220 0.262213 -0.446520
-0.152684 0.063815 -0.436851
0.071029 -0.181370 -0.075635
-0.096607 -0.446608 0.122929
0.048180 -0.231469 0.267666
-0.132784 0.386422 -0.398071
0.155637 -0.395724 0.067543
-0.109682 -0.212044 0.014946
0.056253 0.026197 -0.401260
-0.026660 -0.257134 -0.009255
0.164137 -0.115149 -0.088946
0.052203 0.188683 -0.446520
-0.126761 -0.353159 0.020413
-0.109468 -0.322355 0.018078
0.009304 0.495527 -0.417275
0.163852 0.241446 -0.263244
0.152550 0.272815 -0.244713
0.045069 -0.095108 -0.186445
0.024215 0.487944 -0.438898
-0.030433 -0.346725 -0.039079
-0.041694 0.015286 -0.091206
-0.076503 -0.184860 0.200794
-0.138207 0.333492 -0.159859
-0.109883 -0.215244 0.012635
0.138996 -0.191246 0.209910
-0.113790 0.420747 -0.217046
-0.029434 -0.368752 -0.395153
0.073156 -0.497850 0.202083
0.013913 -0.069194 0.034694
0.053494 -0.068509 -0.228107
-0.069696 0.184316 -0.197014
0.013208 -0.328399 -0.401796
-0.081316 -0.061280 0.023124
0.049489 -0.358887 -0.017153
-0.027846 -0.293151 0.355262
0.167555 -0.424697 0.308979
0.021394 -0.328399 -0.092041
0.015841 -0.491022 0.144104
0.150461 0.278216 -0.215847
0.115338 0.262713 -0.446974
0.185891 0.156115 -0.285213
0.029260 -0.129927 0.123042
-0.126884 0.035193 -0.413081
-0.004398 -0.360632 -0.430717
-0.164661 0.302763 -0.326676
-0.012922 0.075903 -0.162314
0.167194 -0.411873 0.398325
-0.068173 0.026857 -0.402209
-0.005552 -0.241584 -0.022410
0.011667 0.147406 -0.195277
0.161100 -0.305852 0.327026
-0.124498 -0.311356 0.175354
0.145447 0.024567 -0.104516
0.047683 0.129067 -0.190720
0.163160 -0.126603 0.056537
-0.065227 0.483657 -0.321783
-0.104535 -0.131338 0.030330
0.061533 0.454881 -0.211251
0.140046 -0.337567 0.017626
0.058994 0.151603 -0.446844
0.031672 -0.050210 0.006848
0.122152 -0.034250 -0.016774
0.005200 -0.328401 -0.276869
-0.079747 0.056543 -0.145255
0.091203 -0.259018 -0.007176
-0.051728 -0.021438 -0.301433
0.161863 -0.145742 0.142041
-0.127650 -0.021664 -0.240346
-0.105878 -0.422843 0.073662
-0.094519 0.453243 -0.424493
0.067619 -0.425188 0.396180
0.180884 -0.032209 -0.199104
0.092411 -0.404279 0.017626
-0.114445 -0.286304 0.013193
-0.125008 0.028037 -0.403877
-0.152330 0.341948 -0.409537
-0.108000 -0.181915 0.136342
-0.125328 0.400076 -0.222170
0.178100 -0.022217 -0.034686
0.102018 0.374168 -0.165615
-0.175124 0.259806 -0.414115
0.063403 -0.261166 0.311015
-0.120388 0.409123 -0.294048
-0.091270 -0.166321 -0.090915
-0.192058 0.140295 -0.241381
-0.182376 0.224148 -0.418858
-0.123167 -0.305442 0.107098
0.068166 0.112322 -0.184279
0.098370 0.090777 -0.443077
0.047337 -0.354810 -0.352237
0.160373 -0.210777 0.110650
-0.118778 -0.035529 -0.243799
0.060706 -0.119103 -0.150306
0.188525 0.015975 -0.173394
0.156406 -0.114679 -0.156844
0.007333 0.071592 -0.439852
0.163131 -0.342821 0.405140
-0.190223 0.170208 -0.340866
-0.144282 0.006591 -0.355535
0.176254 0.014220 -0.382078
-0.075887 -0.143909 0.142416
-0.054774 -0.135717 -0.127849
-0.030281 -0.116126 -0.154706
0.161226 -0.162887 0.051847
0.075133 -0.089456 0.064191
0.168057 -0.089061 -0.142720
0.176072 0.189935 -0.446521
0.038527 -0.402839 0.419296
0.161122 -0.306297 0.059760
-0.007408 0.498846 -0.404335
0.163077 -0.342088 0.368136
-0.144142 0.006357 -0.217529
-0.013123 0.079058 -0.441376
-0.097901 -0.004741 -0.060894
-0.072713 -0.041878 -0.005472
0.087319 -0.038778 -0.272502
0.028265 -0.464346 0.074436
0.047337 -0.377719 -0.138164
-0.053724 0.032329 -0.409795
-0.126185 -0.318627 0.170204
-0.108978 -0.200826 0.030382
0.192003 0.074336 -0.273465
0.042899 0.275326 -0.182291
0.163735 -0.352396 0.231025
-0.141398 -0.384268 0.194408
-0.108305 0.430403 -0.258870
-0.100351 0.259238 -0.446520
0.166220 -0.100391 -0.013540
-0.113560 -0.253570 0.245158
-0.064587 0.484043 -0.281662
0.057337 0.147857 -0.195338
0.062176 -0.353559 0.432521
-0.035372 0.062703 -0.436422
-0.086169 -0.024466 -0.031335
-0.118788 -0.459860 0.342915
-0.188876 0.102365 -0.287307
0.105727 -0.030234 -0.285660
0.161527 -0.314025 0.243688
0.072502 -0.032626 -0.281976
-0.110790 -0.227840 0.250828
0.108819 -0.483885 0.212997
-0.099845 0.444500 -0.301470
0.123024 -0.212770 -0.046810
-0.058547 -0.379891 0.436855
-0.125339 0.247314 -0.446605
-0.094407 0.453423 -0.284334
0.171098 0.219161 -0.290902
0.135736 -0.455670 0.178258
-0.030584 0.015940 -0.092201
-0.149702 0.182767 -0.446520
0.061810 0.189768 -0.446520
-0.027460 0.106443 -0.181548
-0.192079 0.143325 -0.402037
-0.102717 -0.113720 0.051997
0.051708 0.055293 -0.431955
-0.086782 0.326614 -0.163319
-0.189740 0.106894 -0.383157
0.167023 0.011930 -0.086113
-0.004818 -0.328400 -0.231054
0.168082 -0.088909 0.012887
-0.126705 -0.320893 0.363983
-0.138169 -0.370237 0.308988
-0.128695 -0.329492 0.355522
-0.114413 0.419651 -0.363774
-0.090584 -0.059249 0.020126
0.010345 0.415622 -0.446520
-0.034176 -0.248153 -0.016781
0.181109 -0.031231 -0.167350
0.013196 0.146988 -0.446520
0.005460 -0.325003 0.017907
0.191853 0.066602 -0.200734
0.163451 -0.347951 0.232245
0.116966 0.361842 -0.216369
0.169122 0.225236 -0.432550
-0.042051 -0.300519 0.017719
0.124488 0.160355 -0.446521
-0.139012 -0.446476 0.366731
-0.141663 0.020070 -0.392435
0.161572 -0.153439 -0.102198
-0.013475 0.258049 -0.186285
0.107452 -0.258918 0.307232
-0.068436 0.321145 -0.446520
-0.032490 -0.283634 0.011956
0.163152 -0.343163 0.364994
-0.132628 -0.459668 0.343262
0.040393 0.373709 -0.165398
-0.113673 -0.044598 -0.166687
0.032750 -0.499954 0.201619
0.163221 0.243382 -0.334562
0.108274 0.125468 -0.189528
0.189948 0.123681 -0.317639
0.128980 -0.118184 -0.151662
-0.189297 0.104609 -0.191292
-0.020797 -0.496393 0.236850
0.148509 0.033040 -0.117206
0.084433 -0.005169 -0.337723
0.164199 -0.446427 0.260993
0.160175 -0.225316 0.098926
-0.051642 0.404809 -0.446520
0.000653 -0.037486 -0.274431
0.026155 0.235979 -0.446489
0.079344 0.389824 -0.173647
0.167512 -0.422671 0.226755
-0.020652 -0.328400 -0.388075
-0.148452 0.305247 -0.172804
0.064929 0.126092 -0.189776
-0.131065 -0.016070 -0.301147
-0.099231 0.296225 -0.446521
0.181286 -0.030462 -0.050476
-0.101870 -0.078917 -0.167465
0.132517 0.324037 -0.332450
-0.089850 -0.390156 0.429568
-0.026768 -0.044356 -0.263867
-0.126261 -0.368006 0.036100
0.107798 0.019118 -0.390807
0.055135 0.016041 -0.385880
-0.038400 -0.362107 0.442860
0.064667 -0.217768 -0.042371
0.124596 -0.202291 -0.055658
0.167888 -0.441010 0.279600
0.098662 -0.418736 0.017625
0.189675 0.025421 -0.138561
0.100921 -0.345997 0.423331
0.132359 -0.469901 0.321229
0.150281 0.278685 -0.273900
0.191385 0.104479 -0.185473
0.166126 -0.083090 0.054947
0.061904 -0.205774 0.230692
-0.095568 -0.044130 -0.002142
0.029674 -0.328400 -0.031530
-0.071925 0.053341 -0.141880
0.161050 -0.168764 -0.009141
-0.103910 0.437831 -0.205831
-0.111928 -0.410055 0.058813
0.191868 0.055998 -0.369400
0.014604 -0.493454 0.250480
-0.127082 -0.322523 0.378787
0.017080 -0.143582 -0.117285
-0.138585 -0.371927 0.306064
-0.110217 -0.220567 0.004289
0.160473 -0.204141 -0.029147
0.133706 0.320912 -0.445857
-0.092456 -0.485936 0.272391
-0.101616 -0.028656 -0.025088
0.166550 -0.399440 0.368085
0.148704 0.095811 -0.443809
-0.176993 0.063830 -0.356883
0.190965 0.044048 -0.383185
0.055439 0.085329 -0.169153
0.042201 -0.000464 -0.067349
-0.126856 -0.321544 0.302300
-0.042553 -0.362253 0.017526
0.191605 0.053800 -0.326756
-0.161436 0.035312 -0.309113
0.137583 -0.199453 -0.058280
-0.150847 0.345906 -0.169984
0.190964 0.044099 -0.314958
0.161055 -0.304547 0.086512
0.130119 0.047979 -0.426363
0.106189 -0.293039 0.015987
0.100830 -0.457375 0.072590
0.070732 -0.262530 -0.004039
0.184101 0.166960 -0.333414
-0.019182 0.485200 -0.225787
-0.102062 -0.104752 -0.075510
0.149335 -0.066828 0.031234
-0.084403 -0.307230 0.374221
0.132229 -0.458101 0.176178
-0.061383 0.408303 -0.183328
-0.108633 0.429821 -0.398053
0.117144 -0.207462 -0.051144
0.069195 -0.112196 0.097018
0.049775 0.467677 -0.405529
-0.101677 -0.099434 -0.018849
0.078911 0.091625 -0.443200
-0.099187 0.062284 -0.436261
-0.121182 0.193183 -0.196385
-0.191069 0.157953 -0.312436
0.184049 -0.015093 -0.241765
0.047337 -0.354034 -0.234110
-0.120677 -0.376506 0.439108
-0.123612 -0.307527 0.021302
0.151427 -0.159449 0.164582
0.127386 0.336700 -0.218311
-0.019885 -0.328399 -0.354997
0.039204 -0.092615 -0.190393
-0.179248 0.081888 -0.166803
0.160543 -0.288136 0.209253
-0.120129 -0.290813 0.017005
0.171504 -0.072664 -0.017739
-0.178012 0.067354 -0.261015
0.161736 -0.149127 0.017571
0.151740 0.274905 -0.324764
0.036405 0.017089 -0.093949
0.007750 0.355611 -0.446520
0.183489 -0.018271 -0.295620
0.055252 -0.024006 -0.032021
0.164374 -0.112393 -0.159077
0.047734 -0.322117 0.393595
-0.130020 0.262853 -0.446520
0.015130 -0.357096 0.436799
-0.130551 -0.337456 0.166824
0.079375 0.432179 -0.267000
-0.105983 -0.147487 0.050808
-0.169738 0.209850 -0.446841
-0.068331 -0.018718 -0.306533
-0.185690 0.086562 -0.311201
-0.007581 0.088241 -0.171143
0.095141 0.374791 -0.446520
0.114364 0.367892 -0.321413
0.137491 -0.378659 0.017626
0.160059 -0.259016 0.177091
0.122134 0.349724 -0.237408
0.176560 0.009382 -0.082245
-0.146971 0.066023 -0.154166
-0.131006 -0.339386 0.378096
0.077352 -0.184461 0.200225
0.103935 -0.132409 -0.131562
-0.101786 -0.079354 -0.117215
0.027778 -0.328489 0.402212
0.020109 -0.345031 -0.430747
-0.031990 -0.369816 -0.010691
-0.036565 0.485429 -0.225915
-0.029391 -0.345470 -0.255042
-0.036515 -0.322232 0.018087
-0.184075 0.082525 -0.255242
0.107884 0.218914 -0.446521
-0.107923 0.431042 -0.219456
-0.103090 -0.214088 0.242621
-0.188231 0.099020 -0.402129
0.060816 0.138586 -0.446521
-0.143624 -0.399233 0.422346
0.174311 0.207735 -0.241423
-0.144199 0.006450 -0.268677
-0.033092 -0.357335 0.437091
-0.146258 0.357927 -0.402350
-0.017442 -0.328399 -0.405437
-0.025286 -0.237390 0.276222
0.091588 0.290558 -0.177998
0.022779 -0.309284 0.376929
0.180437 -0.026555 -0.028219
0.103670 -0.065184 0.028827
-0.009296 -0.373682 -0.344863
-0.035897 -0.349741 0.017626
-0.028839 0.344111 -0.154313
-0.015531 -0.211892 -0.047342
0.061470 -0.019972 -0.038044
-0.114403 0.038686 -0.124734
0.008757 -0.328391 -0.202068
0.071535 -0.308345 0.375690
-0.011170 -0.275320 0.330527
0.160583 0.250770 -0.322831
-0.013076 -0.374308 -0.341590
-0.137740 -0.004280 -0.197305
-0.112683 0.006696 -0.078172
0.072227 0.442205 -0.281558
0.127446 -0.401040 0.420738
-0.067594 -0.297180 0.360738
-0.128632 -0.329217 0.154476
0.161857 -0.320505 0.307529
0.060555 0.147518 -0.446489
0.145923 -0.178831 -0.077799
-0.134736 0.382523 -0.238564
0.083099 -0.083954 -0.204108
-0.028125 -0.172842 0.183675
0.026452 -0.362450 -0.430746
0.067228 -0.191605 0.210423
0.167562 -0.425130 0.363658
-0.046483 0.080948 -0.166161
0.130817 -0.002452 -0.344885
-0.152206 0.342274 -0.308467
0.160192 -0.275218 0.008539
-0.136536 -0.362846 0.122727
-0.057633 -0.475076 0.129839
0.080639 0.260798 -0.446520
-0.153627 0.338556 -0.420816
-0.115207 -0.357103 0.436807
-0.105934 0.433529 -0.197070
-0.022497 -0.318314 0.389262
-0.076880 -0.354534 0.017626
-0.106880 -0.161277 0.111994
-0.059372 -0.028632 -0.025126
0.167567 -0.028175 -0.288832
-0.123688 -0.027381 -0.182684
-0.008327 -0.328400 -0.324101
0.008734 -0.301275 0.017853
0.056960 0.406994 -0.182631
0.166651 -0.401531 0.411185
0.010569 -0.042085 -0.005165
-0.109496 -0.052027 -0.137584
0.006156 0.009076 -0.372444
0.045084 0.471728 -0.445803
0.107902 -0.247179 0.290358
0.054249 -0.497752 0.228690
0.069761 0.106537 -0.445450
-0.066830 0.313734 -0.446489
0.045162 -0.112111 0.096898
0.161590 -0.310963 0.058148
0.160505 -0.329482 0.402921
0.131750 -0.031087 -0.284347
-0.113358 -0.252380 0.202413
-0.007450 -0.016884 -0.309981
0.019648 0.055682 -0.144349
0.126686 0.338444 -0.212783
0.047336 -0.337102 -0.373485
-0.042843 -0.141602 -0.119737
0.016270 0.199079 -0.446520
-0.069905 -0.191433 0.210177
0.068701 -0.444249 0.370243
0.007881 0.473502 -0.219357
-0.191780 0.132082 -0.195081
-0.115664 -0.015907 -0.311808
0.047236 0.469872 -0.442157
-0.094047 0.040603 -0.419225
-0.174246 0.263650 -0.294016
-0.091252 -0.477328 0.230832
-0.013471 -0.079959 0.050415
0.113467 -0.172728 0.183513
0.164864 -0.370120 0.360936
-0.097003 -0.017896 -0.308911
-0.145887 0.358902 -0.438308
-0.104887 -0.042954 -0.003882
0.133295 -0.096737 -0.183833
-0.102532 -0.111247 -0.158748
-0.064008 -0.249156 0.293215
0.052644 -0.474755 0.099529
0.191126 0.110298 -0.338698
-0.117380 -0.276863 0.072768
-0.018227 -0.451178 0.044551
0.034271 0.405103 -0.446520
0.185120 0.161365 -0.275235
-0.178515 0.243792 -0.205081
-0.105533 0.435166 -0.391749
-0.051691 0.261499 -0.185559
0.077505 0.004915 -0.363043
-0.061455 -0.233020 0.269906
0.060548 -0.056319 0.015823
0.095031 0.173570 -0.197307
0.052188 -0.431729 0.017626
-0.188818 0.181449 -0.441044
0.078301 0.045502 -0.133144
0.154246 -0.121632 0.110564
0.162688 -0.132207 0.061597
0.148384 -0.432498 0.144361
0.169751 0.223303 -0.237676
0.154517 0.267659 -0.324699
0.108906 -0.089269 0.063919
0.089566 0.372827 -0.164950
0.146146 -0.178398 0.191577
0.175145 0.050024 -0.138381
0.163356 -0.124286 -0.032061
0.160519 -0.201044 0.071174
-0.124399 -0.310443 0.199138
-0.107615 -0.174035 0.119745
-0.126472 0.265052 -0.446520
-0.099688 -0.072492 0.039511
-0.147315 -0.411354 0.251108
-0.147298 0.355204 -0.395788
-0.100708 0.032158 -0.115996
0.162552 -0.333860 0.307602
-0.132967 -0.347719 0.188365
-0.081107 0.007258 -0.369228
-0.087212 0.462909 -0.247149
0.119830 0.355116 -0.181069
0.063235 0.452966 -0.286541
-0.137593 -0.376823 0.112806
0.112492 -0.004847 -0.338652
0.134901 -0.101030 0.080934
0.047337 -0.342354 -0.097899
0.188943 0.135094 -0.423738
-0.106294 -0.152452 -0.047942
0.189229 0.131853 -0.240527
-0.132763 -0.346854 0.073673
-0.024389 0.367841 -0.162423
0.190887 0.042977 -0.154824
0.164743 0.238703 -0.289895
0.189024 0.020047 -0.121519
-0.043571 -0.382613 0.434975
0.009759 -0.374216 -0.338038
0.106824 0.271555 -0.446520
0.021132 -0.328400 -0.046052
0.037598 -0.312601 0.381300
-0.047954 -0.307704 0.374848
0.114384 0.367867 -0.334639
0.172624 -0.067850 -0.005400
0.170770 0.220190 -0.418729
0.143314 0.273951 -0.446520
-0.043391 0.417017 -0.446520
-0.045145 -0.103167 -0.173865
-0.138771 -0.421940 0.223167
0.166173 -0.391658 0.322654
0.041252 -0.489970 0.140698
0.036485 0.151097 -0.446520
-0.135044 0.254036 -0.187100
0.086665 -0.110447 -0.163056
0.017689 -0.148143 0.148455
0.119038 -0.168921 0.178070
-0.029424 -0.353390 -0.084724
0.017634 -0.328400 -0.065229
0.103564 -0.479178 0.297460
0.126958 0.337764 -0.225887
0.158030 -0.439730 0.211304
-0.029391 -0.339549 -0.324313
-0.188753 0.181961 -0.282090
-0.052687 0.250266 -0.187856
0.164209 -0.114644 0.083539
-0.061459 -0.139592 -0.122635
0.148415 -0.447459 0.197707
0.167456 -0.419940 0.377144
-0.127726 0.395684 -0.226491
0.129661 -0.045404 -0.000266
-0.118169 -0.425211 0.136338
-0.172828 0.269844 -0.323466
0.154760 -0.450158 0.233075
-0.086169 -0.473960 0.311349
0.160830 -0.181989 -0.008526
-0.032908 -0.482081 0.117793
-0.086924 0.463242 -0.281176
-0.049582 0.081168 -0.166311
-0.149902 0.348360 -0.422396
0.108670 -0.419743 0.017626
0.134374 -0.426481 0.394620
0.040289 0.122233 -0.188339
0.016878 -0.090680 0.065965
-0.059799 0.036791 -0.122308
0.186480 0.152263 -0.296465
0.108189 0.184710 -0.196996
0.065840 -0.070291 0.036297
0.078306 -0.497957 0.227377
-0.069859 -0.225979 -0.035502
0.167148 -0.411678 0.328202
0.166720 -0.097295 0.048180
0.160363 -0.211334 0.035381
0.165659 -0.382912 0.124254
-0.098881 -0.022689 -0.299088
-0.025812 -0.275313 0.330518
0.129409 0.024165 -0.104566
0.027161 -0.434914 -0.000110
-0.055251 -0.436737 0.017636
-0.105444 -0.140064 0.056338
0.076131 -0.108972 -0.165236
0.162863 -0.338750 0.048098
0.189646 0.025181 -0.132792
-0.153128 0.339847 -0.190442
-0.187730 0.189888 -0.215367
-0.136140 -0.361198 0.375189
-0.109087 -0.202563 0.143884
0.076540 0.369034 -0.446538
0.178183 -0.043901 -0.102233
-0.121898 -0.030334 -0.053678
0.147738 -0.363258 0.017626
0.165215 -0.106585 -0.004536
0.104291 -0.250553 0.295214
-0.151243 0.032784 -0.116859
0.190837 0.042253 -0.417499
0.107508 -0.212787 -0.046582
-0.115368 0.149878 -0.195614
-0.000883 0.326337 -0.163451
0.067540 -0.225988 0.259762
0.081067 0.124658 -0.189242
-0.020551 -0.328400 -0.420525
-0.105188 -0.463927 0.223616
-0.126895 0.397205 -0.266918
-0.020922 -0.412191 -0.081828
-0.016502 0.076506 -0.162776
-0.129329 -0.332228 0.179199
0.112301 0.372742 -0.187235
0.161729 -0.149339 0.057328
-0.005178 -0.401535 0.420397
0.037815 0.202889 -0.194862
0.124818 0.343112 -0.382941
-0.073504 -0.186378 -0.070334
-0.097609 0.448168 -0.232212
0.181255 0.180123 -0.218326
0.187331 0.122169 -0.446522
-0.043036 -0.402308 0.419743
-0.127455 -0.324131 0.189643
-0.029391 -0.329549 -0.360592
-0.057530 -0.473693 0.123182
0.158448 -0.375614 0.039317
-0.043860 -0.020619 -0.302969
-0.129277 -0.415956 0.160091
0.038344 -0.234137 0.271521
0.027723 0.268834 -0.446521
0.191953 0.071792 -0.346045
0.079849 -0.246009 -0.018854
-0.063123 -0.044033 -0.264409
-0.115708 -0.266709 0.153531
0.160462 0.251108 -0.236161
0.183622 -0.017517 -0.075471
0.160319 -0.281116 0.163595
0.097993 -0.429780 0.390565
-0.135812 0.332071 -0.160589
-0.133300 -0.349135 0.089356
0.055638 0.030828 -0.407930
0.190383 0.035678 -0.154602
0.083828 0.425932 -0.405564
-0.122485 0.037062 -0.122645
0.061388 -0.140674 -0.121002
0.150899 0.277050 -0.371225
-0.107766 -0.181574 -0.075053
-0.042953 0.059160 -0.147783
-0.042995 -0.065032 0.028604
-0.110868 0.425888 -0.195011
0.162016 -0.323580 0.127662
0.098197 0.401651 -0.287823
-0.018023 0.029433 -0.405920
-0.038390 0.327082 -0.446605
-0.151556 0.343985 -0.231442
-0.127177 0.182905 -0.446521
0.145339 0.145224 -0.194835
-0.156605 0.329887 -0.336104
-0.088781 -0.177624 0.190474
-0.104513 -0.131117 -0.094701
-0.139366 -0.445170 0.296928
-0.122147 -0.300533 0.253325
0.159994 0.252397 -0.389113
0.139620 -0.414125 0.408453
0.044273 -0.044643 -0.001383
-0.135429 0.381071 -0.228664
-0.129851 -0.334482 0.188754
-0.135774 -0.420925 0.205733
0.167694 -0.431537 0.366983
0.014544 -0.018393 -0.040405
-0.145341 0.008351 -0.193782
0.019244 -0.328400 -0.094727
0.176925 -0.049348 -0.199704
0.187555 0.141892 -0.446520
0.191877 0.089172 -0.435075
0.079568 0.033181 -0.117399
-0.048393 -0.441434 0.019019
-0.006266 -0.328400 -0.034646
0.068443 0.008795 -0.081353
0.190040 0.122644 -0.274295
-0.027158 -0.060072 -0.240569
0.047337 -0.336117 -0.337459
-0.095569 0.165526 -0.197156
-0.182685 0.222226 -0.279538
0.112080 -0.141981 0.139666
-0.065935 -0.162142 -0.095490
0.076047 0.084763 -0.168766
0.062092 0.011482 -0.377201
0.000579 -0.311746 0.380173
0.161050 -0.168795 0.009111
-0.114201 -0.257544 0.168072
0.061228 -0.147042 -0.113037
0.031826 -0.436807 0.381177
-0.175517 0.258092 -0.243398
-0.116775 -0.450803 0.217543
-0.118224 -0.281633 0.304040
-0.013672 -0.266465 0.318563
-0.044358 0.467739 -0.216158
0.126882 -0.167329 -0.090193
0.080780 0.167193 -0.446521
0.022752 -0.380926 -0.265482
0.169374 0.059697 -0.148295
-0.019826 -0.436589 0.005007
-0.149775 0.084342 -0.168479
0.190104 0.121910 -0.297210
-0.075984 0.439216 -0.200219
-0.116355 -0.270717 0.045915
0.188844 0.136222 -0.439851
-0.052577 -0.300901 0.365765
0.139325 -0.259675 -0.006584
0.034735 0.480682 -0.263710
-0.076651 -0.441184 0.031331
0.002731 0.498103 -0.343497
-0.044362 0.344674 -0.153966
0.163364 -0.036206 -0.013873
-0.189274 0.172169 -0.197302
0.134522 -0.454179 0.353640
0.120008 -0.451351 0.106201
-0.005639 -0.451257 0.358785
-0.041107 0.072898 -0.440541
0.007764 -0.334364 0.409025
0.117933 0.359558 -0.393834
0.081509 0.299396 -0.446520
0.155583 0.264580 -0.301093
-0.116270 -0.413204 0.088835
-0.145283 -0.401984 0.409251
-0.155738 0.290629 -0.177977
-0.007877 0.498936 -0.368764
0.017157 -0.014722 -0.315562
0.192018 0.075113 -0.235286
-0.067034 -0.347994 0.425760
0.038694 -0.328400 -0.141646
0.131375 0.292129 -0.446520
0.177645 0.047764 -0.426208
-0.094277 0.258290 -0.186236
-0.025620 -0.328396 -0.373320
0.093408 0.183560 -0.446522
0.027554 0.446335 -0.446520
-0.109936 -0.216090 0.104264
-0.092784 -0.115371 0.101585
-0.049860 0.101705 -0.179071
-0.142344 0.003397 -0.316710
-0.088840 -0.036352 -0.013656
0.161448 -0.312591 0.247927
0.105835 -0.154326 -0.104375
0.141671 0.300867 -0.349469
0.039491 -0.443035 0.023469
-0.109777 -0.213552 0.151646
-0.035164 -0.438487 0.378808
-0.165183 0.042092 -0.179437
0.010217 0.083649 -0.168006
0.002244 0.444779 -0.446876
-0.103250 0.071306 -0.158692
-0.101331 -0.081761 0.002049
