-0.124151 0.127699 0.339005
0.122182 -0.076176 0.161262
-0.283692 -0.088522 -0.067768
-0.130483 -0.015539 -0.465603
-0.128329 -0.025193 0.499996
0.067020 0.050730 -0.458791
0.109831 0.136987 0.500240
-0.072888 -0.200535 -0.040085
0.148262 0.084062 0.269074
-0.056734 -0.144980 -0.289296
-0.025577 0.079642 -0.123278
-0.076070 -0.200968 -0.131672
-0.316045 -0.095411 0.037793
-0.049825 -0.216854 -0.181066
-0.017049 -0.120510 0.173267
0.083576 -0.067193 -0.375719
-0.199854 0.032860 0.185287
-0.221519 -0.113633 -0.090489
-0.177087 -0.085548 -0.190632
-0.070392 -0.105736 0.241824
-0.056919 -0.110097 0.149323
-0.059549 -0.121130 0.063704
-0.184673 0.123965 0.034116
-0.145644 0.070338 0.304080
-0.062489 -0.049389 0.499996
-0.089543 -0.099471 0.115497
0.087655 -0.069335 -0.360840
0.227260 0.037174 -0.070573
0.142655 0.119821 0.500012
-0.267651 0.056218 0.013596
-0.083028 0.121085 0.003058
0.184852 0.060591 -0.079501
-0.211878 0.075836 0.221688
-0.152786 0.058153 -0.065229
-0.069409 -0.110004 0.104163
-0.261786 0.141790 0.193920
-0.123494 -0.180647 -0.128278
-0.087399 0.171286 0.098397
-0.137315 -0.122001 0.499119
-0.081463 -0.074241 0.339529
0.149515 0.068587 0.499994
-0.106107 0.206975 0.123411
0.035113 -0.192477 -0.140022
0.148602 0.003262 -0.236224
-0.154752 -0.082476 -0.290662
-0.202490 0.190535 0.193153
0.203992 0.087520 -0.012922
-0.103414 -0.211736 -0.175150
0.325745 -0.089271 -0.038405
0.165708 0.014417 0.249967
0.142957 0.027748 -0.239620
-0.127564 0.065234 0.325667
0.078353 0.182176 0.111061
-0.202221 -0.083872 -0.136986
-0.258146 -0.138163 -0.060491
-0.173180 -0.157970 -0.170054
0.128199 -0.086764 0.087266
0.006711 0.175948 -0.227784
0.117239 -0.075840 0.213372
-0.144438 -0.034604 0.229055
0.124402 0.084653 -0.063263
-0.050563 0.089752 -0.486010
-0.026961 0.163180 0.331085
0.087962 -0.016346 0.500236
-0.017059 -0.109701 0.413704
0.051585 -0.114738 0.189537
-0.358605 0.041757 0.106760
0.097819 -0.146980 -0.009473
-0.139924 0.117574 -0.295669
0.134754 -0.128118 0.485132
-0.088320 -0.121139 -0.380360
0.226897 -0.006241 0.091256
-0.354252 0.037410 0.132643
0.020874 -0.125664 0.077961
-0.002761 -0.190644 -0.037411
0.073404 -0.032093 -0.173861
-0.059108 -0.181587 -0.188865
0.019452 -0.075086 0.366007
-0.240674 -0.165758 -0.041585
-0.155188 -0.116638 0.024241
0.125280 -0.062659 -0.180715
0.135116 -0.027639 -0.254714
-0.196166 -0.119024 -0.105043
-0.164478 0.129968 0.493207
0.086981 -0.065311 0.499996
-0.046994 -0.037284 -0.491027
-0.172351 -0.008207 0.179647
0.013680 0.115346 0.499974
-0.163553 -0.063029 -0.352285
-0.070627 0.072832 -0.119681
-0.051002 0.145676 -0.205322
0.156368 -0.013629 0.495095
-0.311239 -0.053048 -0.046354
-0.101715 -0.095478 0.101637
-0.300252 -0.031708 0.084623
0.140194 0.170328 0.112616
0.231995 0.144574 0.095442
0.076952 -0.103555 0.247598
0.137040 -0.072547 -0.159143
-0.000470 0.165626 -0.382698
-0.159129 0.158225 0.448265
0.239955 0.032812 0.119906
-0.157919 0.077202 -0.330274
0.159005 0.087203 -0.039790
0.133251 -0.042157 -0.161517
-0.128389 -0.189079 -0.030010
-0.126495 -0.104245 0.050299
0.089331 0.089934 0.499969
-0.132710 -0.008044 -0.128560
-0.078201 0.145652 -0.255888
0.077635 0.017646 -0.439008
0.012736 -0.126934 0.467568
0.050027 -0.115274 0.148021
0.131096 0.063018 0.414821
0.044313 0.155152 -0.375725
-0.085508 -0.077807 0.273191
0.101401 -0.120430 0.425085
-0.130765 0.095023 0.321541
-0.025403 -0.194895 -0.039303
-0.125117 0.127686 0.395233
-0.175768 0.001764 -0.175700
-0.014305 0.155363 0.377535
-0.063400 -0.063378 -0.483008
0.114753 -0.016190 0.386295
-0.101950 -0.140975 -0.252382
-0.065513 -0.074864 0.360286
0.069398 0.021740 -0.454053
-0.160371 -0.031783 0.159995
0.211348 -0.110766 -0.004252
-0.016863 0.176905 0.421047
0.037628 0.168242 0.091745
-0.331388 -0.008867 -0.005759
0.129271 0.195863 0.182414
0.010771 -0.221339 -0.149974
0.157965 0.119805 0.460756
-0.023931 -0.206724 -0.048556
-0.033796 -0.082926 0.312020
0.332910 0.057937 0.047000
0.112629 -0.091674 -0.220477
-0.116429 0.217134 0.222520
-0.144171 0.107387 0.287828
0.150183 0.000041 -0.235795
-0.144269 -0.134429 0.009437
-0.140751 0.185024 0.435535
-0.097244 -0.072888 0.499995
-0.166915 0.031717 0.263207
-0.121696 0.118317 -0.408707
0.149058 0.108736 0.499996
-0.090700 0.141896 0.020950
0.184810 0.182435 0.265757
-0.175629 -0.065277 0.074456
-0.132201 -0.023817 0.310262
0.055085 -0.117317 -0.347158
0.327532 0.036869 0.086666
0.055553 0.168360 0.412963
-0.030383 -0.220963 -0.135976
0.067829 -0.173927 -0.180492
-0.075185 -0.132289 -0.342891
-0.044707 -0.125797 0.058918
-0.306429 -0.016439 -0.039587
-0.128014 -0.010287 -0.087522
0.049160 0.069776 -0.195564
-0.077835 -0.203186 -0.133902
-0.054342 0.117266 -0.477344
-0.171732 0.022087 -0.391449
-0.047123 -0.221671 -0.142540
0.084989 0.114015 -0.367016
-0.070398 0.161812 -0.385900
0.119478 -0.041168 0.275693
0.021694 0.154477 -0.315946
0.086066 -0.001084 -0.083797
-0.054737 0.080489 -0.088052
-0.288333 -0.006244 0.105039
-0.155691 0.027284 0.267829
0.115704 -0.006265 -0.113211
-0.069321 -0.158888 -0.009283
-0.130437 0.064302 -0.460696
0.054436 0.057994 -0.077219
0.157637 0.096284 0.496873
0.016598 0.156811 -0.172802
0.067687 -0.012552 -0.164306
-0.056367 0.085967 -0.068798
-0.339600 0.052090 0.083123
0.024613 0.164589 -0.285001
-0.171663 0.044140 -0.249433
-0.135436 0.059488 0.499996
0.073378 -0.029048 -0.117943
0.041982 -0.109617 -0.407136
-0.180393 -0.000238 -0.249462
-0.032076 0.099443 -0.041368
0.156493 -0.008639 0.450291
-0.001619 0.115633 0.499996
-0.241675 0.053786 -0.010335
-0.084829 -0.151036 -0.245846
-0.114036 -0.093079 -0.434478
-0.032290 0.085411 -0.486651
0.157814 0.147291 0.453194
0.016028 0.082110 -0.487537
-0.038655 0.216235 0.267078
-0.251254 -0.079581 -0.084570
-0.205548 -0.101590 -0.168809
0.010119 -0.194803 -0.189648
-0.124377 0.019850 -0.479044
-0.234155 -0.054818 -0.086773
-0.117431 0.165390 0.033512
-0.147835 -0.085336 -0.372194
-0.107561 0.138486 -0.317037
0.131507 0.013609 0.294579
-0.041573 -0.120801 -0.417517
-0.120718 0.219824 0.237367
-0.167824 -0.059530 0.441216
0.045386 0.168145 0.093612
-0.187538 0.107168 0.011191
0.025720 -0.133650 0.043137
0.051898 0.125351 0.011887
-0.031809 0.197964 0.450658
-0.047688 -0.138750 0.022651
-0.001717 0.172567 -0.269672
-0.235214 0.167797 0.175671
-0.125236 0.196681 0.481582
0.320328 -0.111661 -0.020992
-0.166197 0.082187 0.478008
0.149367 0.000019 -0.238413
0.135883 0.156905 0.269867
-0.181272 -0.065415 0.071997
0.223355 0.115921 0.038679
0.248446 0.146643 0.159110
-0.029130 0.060467 -0.490780
-0.132003 0.075633 0.404416
0.081204 -0.129161 0.488690
0.124923 -0.034565 -0.125286
-0.003243 -0.123330 0.097505
0.129518 0.066666 -0.060703
-0.019289 -0.053431 0.499995
-0.006749 -0.091361 -0.466650
-0.269669 -0.136969 0.010559
-0.325367 0.100206 0.163678
-0.258286 -0.032476 -0.071976
0.115314 -0.080791 0.173541
-0.188174 0.002275 -0.142269
0.048850 0.084364 -0.063388
-0.175324 -0.184704 -0.056170
0.087756 -0.125185 0.035304
-0.109631 -0.120974 0.030520
-0.015232 0.173209 -0.236513
0.217735 0.080063 0.190962
0.305807 0.116475 0.123794
0.115252 -0.083985 -0.278517
-0.129506 0.124441 -0.270001
0.111109 -0.029593 0.370146
-0.023272 -0.215155 -0.080041
0.132467 -0.191303 -0.081960
0.242239 0.159861 0.222932
-0.156837 -0.172942 -0.018056
0.201445 -0.033453 -0.106868
-0.002190 0.174357 0.290880
-0.230650 0.171447 0.204157
0.158344 0.147930 0.495165
-0.106128 -0.023334 -0.484550
-0.154469 0.174185 0.100617
0.116294 0.203246 0.137240
0.108252 0.160981 0.335418
0.125589 -0.058379 0.287259
0.002978 0.050533 0.499996
0.160919 -0.024805 0.180722
0.082156 0.158327 0.392770
-0.198786 0.034658 0.190085
-0.136464 0.018443 0.281199
-0.083690 0.166367 0.084285
0.070055 -0.020684 -0.170404
-0.117136 0.123645 -0.401493
0.208353 -0.111282 -0.095125
-0.340703 0.065367 0.109598
-0.331913 0.068809 0.095947
-0.254561 0.084198 0.197680
-0.135626 0.205806 0.212145
0.009909 -0.118401 -0.412186
-0.073435 -0.162841 -0.219939
0.021923 -0.074084 0.354490
0.109481 -0.117287 -0.216821
-0.122198 0.006263 0.342670
0.262000 0.128124 0.160182
0.051192 -0.127772 0.460778
0.005787 0.184930 0.499996
0.112982 -0.038407 0.331451
-0.234370 -0.017843 0.098041
-0.135477 0.134699 0.003647
0.051394 -0.128412 0.470821
-0.224897 0.125254 0.253876
-0.135213 -0.179317 -0.093327
-0.286400 0.108105 0.106832
-0.185361 -0.034759 -0.184628
0.049000 -0.188134 -0.042159
-0.175717 0.030605 -0.253813
-0.317655 -0.105096 0.031216
-0.156269 0.106877 0.000392
-0.323015 0.023455 0.008152
-0.163141 -0.062071 -0.358021
-0.025981 -0.118485 0.254574
-0.038700 0.157299 0.040360
0.133181 -0.019205 0.266593
0.045109 -0.081793 -0.440524
0.245762 0.121519 0.197345
0.029148 0.213769 0.248744
-0.081861 -0.181285 -0.024555
-0.348137 0.057260 0.121693
-0.138511 0.118862 -0.301977
0.098493 0.090516 -0.308995
0.052561 -0.160183 -0.196542
0.103322 0.225215 0.232011
0.075040 -0.129195 -0.270255
-0.127818 0.162283 0.288583
-0.049931 -0.121601 0.071358
0.228925 -0.119823 -0.014049
0.234050 0.174418 0.223405
-0.304557 0.044285 0.006703
0.037647 0.057178 -0.481247
-0.079983 0.082482 -0.200517
-0.127891 0.195976 0.478353
-0.092644 0.093518 0.499996
0.219616 -0.040862 0.062361
0.122756 0.207244 0.212506
-0.247876 -0.044406 0.073911
-0.146188 0.103195 -0.266543
-0.068785 0.153779 0.030406
0.111258 0.152726 0.275263
-0.127485 -0.044742 0.387408
-0.079884 -0.172373 -0.198154
-0.164260 0.114952 -0.001904
-0.121298 -0.083491 0.307839
0.179459 0.116550 0.265822
-0.094900 0.142353 -0.396618
0.055869 0.148183 -0.385070
-0.010947 0.139008 0.026770
0.134961 -0.066363 0.149993
0.130335 0.032921 0.307664
0.190432 -0.015123 -0.102250
0.221742 -0.120578 -0.086133
-0.178785 -0.178369 -0.069689
-0.097824 -0.101416 0.410112
-0.196383 -0.069207 -0.128840
0.061206 0.026184 -0.095783
0.208342 0.170805 0.253978
0.106115 -0.022250 -0.355433
0.287514 0.122537 0.129194
0.056183 0.031629 -0.099155
0.117063 -0.070331 -0.249678
0.099179 -0.166121 -0.031411
-0.169796 0.052202 -0.216166
-0.306665 -0.039568 -0.043372
0.007313 -0.026111 0.499995
0.089192 0.055365 -0.425036
-0.144473 0.101208 0.310239
0.264612 0.047333 -0.045594
0.272398 0.011546 -0.063492
0.128983 -0.021129 -0.297859
0.306027 0.089104 0.070976
-0.309962 0.024657 0.127960
-0.120887 0.057644 0.375794
-0.073521 0.175537 0.100156
-0.154523 0.112980 0.006098
-0.088146 0.138064 -0.432988
-0.241069 -0.060972 0.061985
-0.112366 -0.080689 0.176762
-0.016408 -0.138121 -0.351046
-0.128671 -0.028141 0.390311
-0.290840 0.040181 0.142466
0.242506 0.095676 0.179226
-0.131473 0.073704 0.319931
0.054627 -0.094066 0.402609
0.031210 0.072176 -0.122978
0.011448 0.058583 -0.493116
0.143922 0.094783 0.422567
-0.066460 -0.109006 0.220493
-0.219130 0.052112 0.186596
-0.097574 0.139087 -0.370684
-0.142760 -0.056385 0.144169
-0.245985 -0.067573 0.057408
0.124125 0.004744 0.404555
-0.229429 0.148645 0.251149
0.001738 -0.175829 -0.207108
-0.210647 -0.168231 -0.010494
-0.021096 -0.125835 -0.402062
-0.170114 0.023115 -0.399138
-0.055551 0.088755 -0.061351
-0.024486 -0.133787 -0.373204
-0.010673 -0.082464 0.313153
0.068805 0.186855 0.123145
0.055576 -0.125730 0.438261
-0.162750 -0.092511 -0.203155
-0.238876 -0.083121 0.047962
-0.169185 0.055964 -0.252751
0.047340 -0.128364 0.484585
-0.074157 0.067959 -0.112345
0.048792 -0.128295 0.470629
-0.229806 -0.068994 0.057452
-0.135982 -0.180757 -0.188097
-0.091328 0.144175 -0.410019
0.109127 -0.021830 0.499997
-0.068692 0.210449 0.255573
-0.174843 -0.014582 -0.358362
-0.168455 0.019920 0.457020
0.125236 -0.107623 -0.161156
0.061046 -0.114309 0.113302
0.193255 0.120607 -0.006285
0.017471 -0.110736 0.499996
0.022471 0.194032 -0.280607
-0.340091 0.046342 0.060700
0.106824 -0.030377 -0.205828
-0.007239 0.076862 -0.157238
-0.032001 0.048228 -0.490751
0.009490 0.164653 0.324840
-0.001693 -0.075168 0.336258
-0.065359 0.169660 -0.355866
-0.093095 -0.088817 0.254674
0.152904 0.206091 0.244223
0.053332 -0.154826 -0.007542
-0.178173 0.051601 -0.292279
-0.021831 -0.202239 -0.045155
-0.097486 0.048007 0.499995
-0.122964 0.142986 0.344086
0.245218 -0.116673 -0.074444
0.323694 -0.081270 -0.044923
0.015319 0.157138 -0.338695
0.140505 0.163742 0.094796
0.020170 0.201924 0.278071
-0.042899 0.198435 0.165547
0.113395 -0.083985 0.389694
-0.336091 0.016793 0.119656
0.178603 -0.047782 -0.136248
0.008396 -0.077839 0.325227
0.039866 0.134813 -0.179054
0.137137 -0.057136 0.184934
0.029709 0.156777 0.351257
-0.189016 -0.040350 -0.172925
-0.167034 0.071596 -0.308667
-0.033443 0.152259 -0.199499
-0.124339 0.009671 0.332558
-0.143529 0.134123 0.271647
-0.005874 -0.175935 -0.210637
-0.356466 0.046014 0.112916
0.051731 0.203133 0.175767
0.164316 0.148247 0.267772
-0.219127 0.168074 0.148542
0.116297 -0.081811 -0.247019
0.219604 0.020702 -0.080626
-0.250420 0.150823 0.220383
0.152434 -0.175924 -0.075981
0.069324 0.081356 0.499995
0.096956 -0.002721 -0.097785
-0.297440 -0.090449 -0.057335
-0.156578 -0.051933 0.119024
0.026682 0.169809 0.093384
0.132093 0.052569 -0.068012
0.129934 0.029993 0.412140
0.143794 -0.127840 -0.001810
-0.101722 -0.135056 -0.290380
-0.072522 0.095892 -0.197342
-0.132898 -0.061963 0.167348
0.092422 -0.162333 -0.140193
-0.022841 0.083924 -0.095828
0.058386 0.200725 0.281299
-0.178917 -0.137145 -0.182743
-0.070400 -0.213462 -0.096920
0.278129 0.037612 -0.036616
0.255242 0.053814 -0.041800
0.028516 0.168168 0.318707
0.238127 0.095219 0.035087
-0.017432 0.136878 0.018635
-0.067955 0.054094 -0.119110
0.061069 -0.123465 -0.315519
-0.167761 -0.106238 0.468196
0.109722 0.061293 -0.279939
0.195023 -0.039119 0.083445
0.089670 0.194236 0.499209
0.272678 0.124638 0.128881
-0.125985 -0.061578 -0.455912
-0.180424 -0.161759 -0.091848
0.115347 -0.060744 0.321364
0.059909 0.054864 -0.101414
0.139155 -0.165445 -0.100149
-0.221644 -0.135850 0.010006
-0.091032 0.188585 0.427155
0.048513 0.043674 -0.124373
0.116130 -0.064611 0.319305
-0.049581 -0.111904 0.499995
0.000325 -0.141579 -0.322427
-0.017402 0.133681 0.014473
0.166269 0.006724 0.227762
-0.157710 0.146872 0.263604
0.040705 0.153644 -0.229595
-0.066470 0.074179 -0.196195
-0.033849 -0.129318 -0.394824
0.060394 -0.109962 0.252316
0.002125 0.164823 -0.383656
0.126952 0.057607 0.499995
0.086150 0.168079 0.319669
-0.298695 -0.070619 -0.065125
0.024121 -0.088596 0.285869
-0.204675 -0.120660 0.020885
0.308264 0.115562 0.118294
0.012527 0.156710 -0.172177
0.070279 -0.170652 -0.030142
0.150051 0.000379 0.269070
-0.014383 -0.018390 -0.497785
-0.066327 0.055468 -0.108792
0.184028 0.165770 0.104972
-0.085237 -0.107576 0.412966
0.097421 -0.093274 0.499996
-0.200836 0.183311 0.162247
0.037173 -0.213251 -0.076896
-0.186631 -0.014537 -0.123669
-0.153796 0.033277 -0.439812
0.088837 0.157903 0.047419
0.041439 -0.086686 -0.441255
0.141257 -0.074438 0.096591
-0.299237 0.060179 0.158151
0.304348 0.035181 0.092186
-0.163094 0.009675 0.248811
-0.082260 0.157580 -0.302692
0.029893 0.151307 -0.292172
-0.120898 -0.112396 -0.364644
0.113560 -0.137086 -0.153411
0.273433 0.101273 0.158685
-0.179022 0.047755 -0.209954
0.054143 0.048599 0.499995
-0.109124 -0.129064 -0.317511
-0.320539 -0.067743 0.056529
-0.258541 -0.144995 -0.053008
-0.075976 -0.105203 0.117459
0.148158 0.186227 0.432909
-0.018403 -0.090729 0.299900
-0.351588 -0.010939 0.032541
-0.073281 0.152941 0.069694
-0.088554 -0.125607 0.492096
-0.147014 0.141870 0.500012
-0.233654 -0.068665 -0.084223
-0.018782 0.037977 -0.494777
-0.094976 -0.099063 0.409233
-0.115178 0.102094 -0.210655
-0.185460 -0.175696 -0.063998
-0.049196 -0.137779 -0.350718
0.141046 -0.068940 -0.214199
0.067037 0.059487 -0.096146
-0.131053 0.118582 -0.211536
-0.127019 -0.036480 0.320495
0.097979 -0.041618 -0.374683
-0.082099 -0.166965 -0.213334
0.231458 0.170359 0.173729
0.274577 0.000882 -0.066459
0.140898 -0.076703 0.092228
0.055872 -0.075216 0.346336
-0.220449 -0.004266 -0.077562
-0.082389 -0.125438 0.481713
-0.196610 0.012084 -0.085412
-0.001668 0.086615 0.499996
0.297335 0.113884 0.086777
-0.162532 0.143175 0.457676
-0.079526 0.178564 0.274656
-0.168485 -0.039853 0.455782
0.152583 0.054779 -0.070386
0.197310 -0.142017 -0.028129
0.009640 -0.170603 -0.226801
-0.148046 0.082787 0.418070
0.225345 -0.016495 0.082299
-0.158022 0.071259 -0.251142
-0.005275 -0.119942 0.151125
0.186502 0.027919 -0.111286
0.145658 -0.096457 0.422717
0.087778 0.018836 -0.417883
0.063201 0.097680 -0.434199
-0.311773 0.046470 0.020286
0.018993 0.075678 -0.487745
-0.114095 -0.096598 0.075582
0.120610 0.118483 0.400594
-0.212008 0.176382 0.152553
0.104641 0.229567 0.263174
-0.164443 0.060145 -0.390461
-0.164518 -0.043848 -0.380526
-0.112272 -0.148616 -0.002647
-0.244436 -0.171573 -0.018047
0.072618 0.197085 0.478080
0.101098 -0.012811 -0.375698
0.218484 -0.111281 -0.092421
0.039599 -0.117715 0.150624
0.135216 0.011983 0.499995
-0.365560 0.011339 0.099748
-0.257938 0.099317 0.069078
0.009975 0.131479 -0.456001
0.244985 0.035306 0.118545
0.019552 0.172999 -0.319562
-0.169937 -0.021120 0.158194
0.068517 0.091532 -0.436317
0.091556 0.069711 -0.402716
-0.131650 0.127623 -0.232186
-0.294305 -0.102604 -0.053756
-0.092651 0.159850 0.077513
0.021733 0.143872 -0.333974
-0.010292 0.092799 -0.074620
0.058634 0.089317 0.500239
-0.020858 -0.223080 -0.138026
0.001650 0.113628 0.009649
-0.090899 -0.197293 -0.190250
-0.032696 0.139443 -0.182300
-0.076876 -0.085413 0.393821
-0.137773 -0.014391 0.404355
0.233208 0.146678 0.102727
-0.150225 -0.052710 0.132383
-0.022753 -0.199354 -0.043166
-0.122763 0.082984 0.341704
0.317362 -0.113534 -0.020587
0.210118 -0.079370 -0.103080
0.166280 -0.023700 0.164266
-0.173737 0.012409 -0.283864
0.062491 0.037514 -0.168271
0.082911 -0.017964 0.499996
-0.132547 -0.062981 0.499996
0.000421 -0.169316 -0.248341
-0.066492 -0.167356 -0.196175
-0.002323 -0.046950 0.500194
-0.066076 -0.095482 0.405883
0.296391 0.069608 0.017424
-0.022433 -0.053988 -0.490012
0.307971 0.044315 0.097581
0.046870 0.183899 0.283731
0.130520 0.164815 0.308933
-0.088849 -0.202044 -0.189563
0.157702 0.144341 0.462837
0.117922 -0.079419 0.500003
-0.023618 -0.146771 0.013342
0.065906 0.066985 -0.096186
0.125115 -0.044558 -0.291813
0.099824 -0.022490 -0.377902
0.327923 -0.101901 -0.012606
-0.072277 0.213637 0.271647
0.088637 -0.088575 -0.331158
-0.153404 0.006065 0.499995
0.053232 -0.114132 0.160497
-0.167061 0.058433 0.482889
0.006181 0.160630 -0.365606
0.122820 0.097555 0.404869
0.185047 0.086927 -0.052348
-0.214634 0.186031 0.241755
0.050696 -0.112362 0.253916
-0.095503 -0.124018 0.458183
-0.189207 -0.068709 -0.175741
0.063011 -0.053383 0.500238
0.075914 0.198378 0.154776
-0.009602 -0.022015 -0.497022
0.107234 -0.076028 -0.317504
-0.142224 0.191548 0.263813
0.154476 -0.024951 0.206073
-0.177764 -0.001127 -0.334247
0.133036 0.022793 -0.254631
0.057750 -0.121267 -0.327512
0.035089 0.195573 0.499697
0.079340 0.204619 0.167552
-0.018936 -0.136489 0.038816
0.077599 -0.080241 0.269357
-0.077975 0.147708 -0.424512
-0.005208 0.091501 -0.079411
0.068266 -0.126741 0.440917
0.079321 0.057422 -0.445390
0.014817 0.155145 -0.340283
0.279314 0.122867 0.143466
0.290552 -0.117962 -0.047574
0.025298 -0.010753 0.499996
-0.186470 -0.125407 -0.184498
-0.061687 -0.127733 0.041328
-0.132628 0.020649 0.400618
-0.254681 0.080329 0.038127
0.072453 -0.028680 -0.196903
-0.125006 -0.016402 0.381458
0.039019 -0.135655 -0.315944
0.078677 0.154369 0.363207
0.225266 -0.032705 0.067059
-0.120446 0.119886 0.499996
-0.271495 -0.004658 -0.058714
-0.220106 0.007837 0.131631
-0.079626 0.041155 -0.143197
-0.002261 -0.121836 0.250280
-0.265059 0.121207 0.205717
-0.066699 0.171462 -0.368031
0.005671 0.088120 0.499996
0.246939 0.140598 0.175263
0.089258 -0.138572 0.007677
-0.307134 -0.119800 -0.028210
-0.022675 -0.013918 0.499995
0.039863 0.190581 0.149109
-0.277460 -0.013922 -0.057215
-0.280644 0.032212 -0.024533
0.195239 -0.071022 0.044383
-0.299704 -0.036765 -0.051965
-0.000520 -0.200005 -0.044987
-0.161491 0.151511 0.457792
-0.141704 -0.008032 -0.114064
0.072711 0.166537 0.081885
0.285540 0.015778 -0.049230
0.109963 -0.041999 0.356043
-0.128577 -0.007643 -0.136338
-0.144756 -0.027801 0.410652
0.254843 -0.122285 -0.014546
0.168515 -0.092299 -0.118683
0.055823 0.210319 0.225081
-0.030864 0.033863 0.499996
-0.094050 -0.200823 -0.079805
0.116224 -0.183094 -0.049543
-0.228521 0.145457 0.117990
-0.012511 -0.124153 0.087252
-0.178796 0.079442 -0.042972
0.123097 -0.006904 -0.207890
-0.116724 -0.077109 0.168905
0.187331 0.059268 0.230619
0.120406 -0.048727 -0.301899
-0.169646 0.015166 -0.220329
-0.125188 -0.067218 0.200974
-0.085569 0.150928 -0.395105
-0.175202 -0.150252 -0.143191
-0.087396 -0.084002 0.283247
0.086952 0.190905 0.499906
0.015380 0.165649 -0.341000
0.265491 -0.092106 -0.088124
0.092143 0.195804 0.463982
0.228994 0.070427 0.168460
0.086560 0.187836 0.428111
0.208964 -0.117436 -0.092173
-0.100697 -0.137587 -0.267187
0.247615 -0.124947 -0.016567
-0.055736 0.098788 0.499996
0.245510 0.100856 0.180956
-0.140966 0.140211 0.500012
-0.232165 0.167684 0.224054
0.060754 -0.111175 0.235915
-0.341112 0.028612 0.128177
-0.112726 0.158139 0.028958
0.152337 -0.177120 -0.088498
0.111465 0.062128 0.370688
0.312989 -0.013148 0.056933
0.116646 -0.148359 -0.018168
-0.154617 0.059849 -0.171781
-0.069841 0.074557 -0.105110
0.303653 0.070718 0.022916
-0.187760 -0.058593 0.075997
0.105623 0.195024 0.485662
-0.078638 -0.219476 -0.164245
0.049893 0.048824 -0.102710
-0.025551 0.013700 -0.496945
0.088535 -0.059985 -0.379312
-0.147867 0.195895 0.487362
0.226243 -0.028434 -0.102354
0.113206 0.018539 0.380835
-0.003466 0.012691 -0.498874
-0.167110 -0.021915 0.437987
-0.036071 0.210347 0.275940
0.159084 -0.048633 -0.137641
-0.242475 0.028039 0.143541
0.055053 -0.143485 -0.242749
-0.102664 -0.081367 0.387488
-0.085996 0.060992 -0.486259
-0.079005 0.214799 0.275401
-0.014660 0.084675 -0.105511
-0.138060 -0.021777 0.499996
0.089203 -0.166253 -0.148315
0.073294 -0.182823 -0.041910
-0.157785 0.074315 -0.395084
0.081590 -0.092862 0.399446
-0.295145 -0.029592 0.086357
-0.178076 -0.006903 -0.113222
-0.142359 0.110799 -0.274990
0.217314 -0.039824 -0.110778
-0.042611 -0.092302 0.499999
-0.189761 0.200252 0.245733
-0.173590 -0.025449 0.140094
-0.140940 0.072367 -0.443222
-0.045453 0.174235 0.109753
-0.119453 -0.167929 -0.183850
0.023719 -0.066511 -0.467061
-0.220845 -0.008417 0.112246
0.113544 0.048372 0.383182
0.197313 0.185773 0.177583
-0.068345 0.060562 -0.051713
0.173192 -0.131139 -0.105516
-0.105224 0.197187 0.470942
-0.071987 -0.005826 0.499996
0.251328 -0.019929 0.066645
0.189774 0.005225 0.148745
0.070965 0.142188 0.026900
-0.144247 0.107154 0.275966
-0.182730 -0.036678 -0.205970
0.278624 -0.021004 0.057992
-0.229701 0.128742 0.065399
0.178312 0.196541 0.267441
0.049007 -0.193671 -0.189676
-0.121676 -0.199539 -0.174600
-0.136552 0.044947 0.499996
0.164316 -0.173970 -0.054058
0.328139 0.072447 0.110690
0.133001 0.094948 0.269732
-0.155280 -0.169174 -0.156375
-0.179911 -0.092351 0.046997
0.189864 0.100548 0.262170
0.158203 0.114163 0.481833
-0.119564 -0.124810 -0.258563
-0.010865 0.168407 -0.334214
0.044632 -0.116390 0.198788
-0.089548 -0.073840 0.344159
0.096224 0.067560 -0.377494
0.130451 -0.003805 -0.289036
0.336702 -0.033332 -0.026210
-0.146959 -0.134482 0.008769
0.209768 -0.066159 -0.109069
0.111463 -0.156031 -0.140644
0.125268 -0.055660 -0.244148
-0.104327 0.111519 0.499996
-0.239809 0.009331 -0.059487
0.033461 0.147244 -0.304367
-0.153332 -0.056951 -0.409680
-0.127258 0.141956 0.003485
0.041157 -0.076251 0.333585
-0.067602 0.121595 -0.472025
0.109244 -0.040313 -0.181832
0.245577 0.157529 0.167414
0.123478 0.075531 -0.070980
-0.095348 -0.124433 0.464266
-0.015843 -0.038535 0.499996
0.169882 0.156024 0.069838
0.258395 -0.057368 0.033861
-0.000076 0.197717 0.457818
-0.139692 -0.068535 0.289523
0.109985 0.049543 0.500440
-0.157052 -0.112655 0.423151
0.216086 0.159529 0.110696
0.066051 0.131761 -0.263796
0.039621 0.152019 -0.209344
0.350951 0.037545 0.059257
-0.120127 0.107219 -0.441129
0.129257 0.152177 0.049104
0.107173 0.079792 0.499996
0.201111 -0.005497 -0.098560
0.033344 0.077481 0.500040
-0.165545 0.104217 0.490157
0.212490 0.036978 -0.071584
0.055911 -0.113080 0.210973
-0.308831 -0.071050 -0.056536
0.018745 0.197535 0.481957
-0.214121 -0.073760 0.056411
-0.358552 0.022564 0.081359
-0.156406 0.066782 0.499996
0.001607 0.091983 -0.081964
-0.152709 -0.105064 0.499996
0.327337 0.018369 0.074909
0.047836 -0.128367 0.478518
0.087104 -0.104557 0.116062
0.149711 0.003350 0.269460
-0.035373 0.157586 -0.248049
-0.051327 -0.081971 0.387528
-0.266719 -0.073415 -0.081482
-0.104158 0.203927 0.112403
-0.152686 0.096945 -0.276445
0.106657 -0.016869 -0.110909
-0.064270 0.160626 -0.307217
-0.206260 -0.140889 -0.094042
-0.142900 0.024399 -0.091059
0.078523 -0.127629 0.457221
0.250745 -0.084458 -0.098626
0.223036 0.078642 -0.022964
0.126396 -0.065338 0.304044
-0.181188 0.010108 -0.094393
-0.143082 0.064129 -0.441496
-0.225500 -0.047588 0.073315
-0.114602 0.062949 0.500012
0.090782 0.090569 -0.237150
-0.083906 0.101921 -0.477361
-0.110069 0.166246 0.406689
-0.349822 -0.083181 0.016293
-0.224032 -0.091043 0.043761
0.075891 0.125666 -0.282063
0.171260 0.033542 0.251651
0.219376 0.150822 0.248734
0.085482 0.111296 -0.270363
-0.061574 0.107947 -0.190915
0.056929 0.136853 0.023068
0.142071 0.196695 0.271892
-0.095971 -0.089497 0.499995
0.181630 0.198351 0.201253
-0.065705 0.171765 0.499996
-0.134005 0.201460 0.265259
-0.122836 -0.053649 0.335064
-0.122505 0.171964 0.499996
0.128418 -0.028050 0.500239
-0.016952 0.096508 -0.060309
-0.014349 -0.117509 0.258980
0.164124 -0.043778 0.127080
0.001763 -0.138145 -0.335204
-0.245524 0.124218 0.240697
0.232983 0.077758 -0.018556
0.095715 -0.086160 0.390442
0.152822 -0.001513 0.434126
0.118370 0.075635 0.323097
-0.146995 0.064232 0.276002
-0.125766 0.118811 -0.380355
-0.168782 -0.086520 -0.206935
-0.076143 -0.131061 -0.348238
-0.175557 -0.156749 -0.156100
0.113440 -0.025821 -0.170773
0.034560 0.104967 0.499996
-0.065546 0.043480 0.500238
-0.227146 -0.170271 -0.047181
-0.150878 0.036405 0.271577
-0.241388 0.150634 0.191768
-0.109355 -0.130081 0.017899
0.061982 -0.141697 -0.231167
0.051969 0.057983 -0.145989
-0.019685 -0.075763 0.371469
-0.110519 -0.086875 0.121112
-0.105435 0.029691 -0.177049
0.087398 -0.111183 -0.293287
0.097954 -0.101752 -0.286512
-0.159579 0.169666 0.499223
-0.125617 0.000103 0.328157
0.118441 -0.103527 -0.185711
-0.103637 0.033219 -0.065402
0.108782 -0.168383 -0.035498
-0.166063 0.093112 -0.229005
0.246709 0.017038 0.100099
0.182120 0.054429 -0.084628
-0.322240 -0.015123 -0.023347
0.152295 0.019787 -0.095678
0.038742 0.157938 -0.239723
0.124411 0.174290 0.074992
0.008551 -0.102649 0.410450
0.094245 0.129519 0.500240
-0.087873 0.061703 0.499995
-0.094013 0.226505 0.192890
-0.092698 -0.123293 0.442053
0.092506 -0.103409 -0.295138
0.292847 0.011671 0.078854
0.268568 -0.066502 -0.095832
0.156645 0.047975 -0.075600
0.088194 -0.004357 -0.232527
-0.093037 0.066804 -0.209850
0.069066 -0.009806 -0.135448
0.036477 -0.047812 0.500193
0.027358 -0.210875 -0.091343
-0.168561 -0.118738 0.488563
-0.310245 -0.055079 -0.053475
0.116210 -0.128298 0.480460
-0.120533 0.039735 0.368122
-0.103295 0.163970 0.402571
-0.191825 -0.069916 -0.177667
0.362698 -0.001553 0.046905
-0.338398 -0.012815 0.001163
-0.042000 -0.212014 -0.187987
-0.189252 0.153796 0.102465
0.088973 0.157511 0.040282
0.130881 0.088046 0.304016
0.060601 0.197498 0.477352
0.115843 0.004993 0.389227
0.124943 0.132916 0.315552
-0.119873 0.047083 0.361991
-0.027051 0.139765 0.500444
0.091167 0.033024 -0.406709
0.131604 0.090808 0.415689
0.233621 -0.102188 -0.000411
-0.209096 0.149866 0.251917
-0.115380 -0.077548 0.194315
0.094250 -0.025610 -0.178713
0.018713 0.168354 0.499995
0.262937 -0.089588 -0.091066
-0.185937 -0.008022 -0.171040
0.070991 -0.178579 -0.149883
0.135404 -0.009041 -0.255742
-0.024397 -0.121534 0.433189
-0.129073 -0.092412 0.067681
-0.048903 0.210536 0.244915
0.072616 -0.022831 -0.116119
0.015366 0.121858 -0.464884
-0.042163 0.188215 0.499995
-0.120282 0.130553 0.352690
0.090816 -0.112613 0.069163
-0.127522 -0.102226 -0.382705
-0.007749 -0.079090 0.320914
0.321705 0.035133 0.087252
-0.110025 -0.078416 0.268105
-0.013585 -0.209868 -0.134489
-0.003493 -0.136443 0.038484
-0.088705 -0.074473 0.360782
-0.210510 0.023911 0.160794
0.152774 0.198639 0.209039
0.175104 -0.161025 -0.082553
-0.239233 -0.041072 0.077044
0.212712 -0.101997 0.003888
-0.134108 0.155950 0.414173
-0.102386 -0.088356 0.500236
-0.012333 0.124531 -0.170366
-0.035516 -0.146203 0.012970
-0.016843 -0.172571 -0.226128
-0.163056 0.020068 0.428868
0.055441 0.154415 0.371577
-0.170083 0.159071 0.092573
-0.207619 -0.092359 -0.102976
-0.097154 0.166416 0.406991
0.232654 -0.106193 -0.087931
0.101410 0.155510 0.383083
-0.110757 0.035086 -0.060320
-0.146814 0.147709 0.268583
-0.014110 -0.135496 -0.356661
0.093243 -0.007706 -0.226730
0.278264 0.024945 -0.049773
-0.091894 0.143500 0.053820
-0.076505 0.185706 0.124785
-0.080735 -0.130598 -0.350799
-0.113924 -0.175248 -0.186802
0.126966 0.146333 0.314158
0.051966 -0.024260 -0.467148
0.117619 0.044025 0.395510
0.033805 0.174893 0.499995
-0.173015 0.177965 0.256612
0.289274 0.071282 0.125753
-0.145334 0.048277 0.499999
-0.087588 0.080822 -0.204993
0.221360 0.029442 0.133289
-0.048284 -0.074922 0.362434
0.105250 -0.087483 0.199093
0.088398 0.191825 0.121288
0.150643 0.193553 0.490698
0.165987 0.018494 -0.106019
-0.120598 -0.174216 -0.187650
0.034201 -0.074454 0.347578
-0.347306 0.033716 0.055128
-0.149331 -0.179133 -0.087820
0.079850 0.115418 -0.260578
0.024945 0.158115 0.343223
0.044512 -0.194861 -0.131458
-0.035527 0.165496 0.407839
0.195154 0.197335 0.227663
0.077854 -0.061648 -0.404970
-0.067083 -0.125265 0.469838
0.008817 -0.074412 0.360923
0.060945 -0.112584 0.154629
-0.128988 0.061360 0.399256
0.084951 0.192964 0.499652
-0.069036 -0.076679 0.329248
-0.153759 -0.017587 -0.435821
-0.150347 0.218944 0.254156
0.014618 0.175357 -0.276897
0.120641 0.070050 -0.075914
0.145476 0.161815 0.425982
0.135249 0.212495 0.258171
-0.027853 0.100950 -0.039751
-0.020473 -0.089814 0.288024
0.070157 0.156868 0.344755
-0.308732 0.067926 0.060512
0.154027 -0.036135 0.179734
-0.200928 -0.115996 -0.143293
0.254709 0.069553 0.145095
-0.195508 0.089369 0.258027
-0.142601 -0.113579 -0.224465
-0.162107 -0.187019 -0.059173
-0.114442 0.128064 -0.361068
0.110507 0.191207 0.441175
-0.291080 -0.144672 0.004053
0.118551 0.045430 0.397509
0.084529 -0.184383 -0.044619
0.005273 0.038183 0.499995
0.239218 0.052826 0.140634
0.091682 0.087290 -0.239323
0.019065 0.121923 -0.463580
0.005086 -0.145345 0.017235
0.023484 0.113446 -0.463770
0.082600 0.107922 -0.235874
0.118816 -0.070428 0.246485
-0.243264 -0.110365 -0.075712
-0.203550 0.062959 -0.029113
-0.047161 0.154541 -0.221823
-0.217056 0.188743 0.234369
-0.107370 0.179274 0.060906
0.093870 -0.051810 -0.127006
-0.118395 -0.135686 0.009325
0.280631 0.003468 0.075510
0.184098 0.070628 0.250434
-0.011093 -0.122297 0.244540
-0.135028 -0.086041 -0.409568
-0.217737 0.007924 -0.076090
-0.058068 -0.156830 -0.240876
0.141349 0.180897 0.499996
-0.034940 -0.108595 0.499995
-0.202633 0.123088 0.047146
-0.283000 0.114912 0.148629
-0.126715 -0.179295 -0.116060
-0.088814 0.195539 0.146760
-0.254725 -0.165355 -0.022663
0.085425 0.097295 -0.367400
0.119380 0.024588 -0.274132
0.122180 -0.102266 0.408303
-0.119679 -0.199320 -0.147376
-0.209397 -0.122043 0.019895
0.040386 0.157472 0.499996
-0.020032 -0.118123 0.136121
0.041234 0.102818 -0.182516
0.221880 -0.046790 0.055471
-0.239277 -0.009426 -0.067839
0.069593 -0.208827 -0.092433
-0.074972 0.044780 -0.188820
0.240393 -0.066619 0.030336
0.139491 0.122393 0.268840
-0.252643 0.100040 0.213051
-0.253069 0.125857 0.235724
0.001904 0.193457 0.439976
-0.062791 -0.111056 0.199255
-0.133343 -0.183550 -0.138248
0.056420 0.086846 0.499996
0.007391 0.079464 -0.134248
-0.362746 0.026537 0.098523
-0.086770 0.170984 0.413561
0.013702 -0.214430 -0.173900
0.177891 0.114302 0.266083
-0.048890 -0.225604 -0.154960
0.146310 -0.108352 0.424100
-0.108703 0.088360 -0.032197
-0.324015 -0.044717 0.073741
0.136043 -0.062307 0.164086
-0.053233 -0.039661 0.499995
-0.154768 -0.065961 0.088687
-0.112116 0.221020 0.225142
0.124358 0.186270 0.109364
0.095194 0.083179 -0.341997
0.050148 0.184226 0.129970
-0.148842 -0.079755 -0.381165
0.243751 0.147799 0.135419
0.042789 0.116463 -0.184495
0.140085 -0.081380 0.499995
0.085356 0.154859 0.376455
0.119523 -0.020419 0.499996
-0.126837 0.002397 -0.474071
-0.063287 -0.110595 0.500236
0.094320 0.169346 0.045617
0.241511 0.126606 0.206511
-0.057907 -0.112618 0.209748
0.083299 0.090906 0.499996
0.124796 0.023937 -0.308865
-0.176874 -0.016092 -0.333258
0.024654 -0.045897 -0.477162
-0.031649 -0.097645 0.408046
-0.189508 0.116684 0.258145
-0.090084 -0.093093 0.240626
0.074905 0.026926 -0.446305
-0.293182 -0.117969 0.022666
-0.066325 -0.112070 0.098564
0.009287 0.007244 0.499996
-0.064306 0.208863 0.246568
0.099267 -0.085853 0.258830
0.122300 -0.118605 0.422146
0.155164 0.029530 0.269499
0.138222 0.017382 -0.249157
-0.207145 -0.008560 -0.087804
-0.212721 -0.024949 -0.088861
-0.109961 0.030111 -0.485087
-0.175536 0.111291 -0.003301
0.178360 -0.059988 0.072519
-0.257410 0.069821 0.181015
-0.275361 0.039953 0.145192
0.073631 -0.204699 -0.070897
0.126926 0.056896 0.409845
-0.019517 0.204241 0.238450
-0.155059 -0.057942 0.499999
0.276412 0.121205 0.117685
-0.139587 0.200035 0.192315
-0.164116 0.040131 -0.058827
-0.047839 -0.132148 -0.379603
-0.150044 -0.185639 -0.027380
-0.000878 -0.057371 0.499996
-0.165746 -0.081985 -0.218306
0.084785 0.121268 0.499996
-0.311242 0.006558 0.113648
-0.017313 0.155400 0.377395
-0.128012 -0.072171 0.318617
-0.321738 -0.017370 -0.030535
-0.171911 0.104118 0.262517
0.063013 -0.105100 -0.374610
0.038694 -0.198997 -0.128238
-0.109212 -0.104846 -0.415865
0.078092 0.052013 -0.217390
-0.135996 0.124821 -0.229879
0.049683 0.015248 -0.198857
-0.044857 0.198043 0.466553
0.169909 0.005423 0.206807
-0.118478 0.067392 -0.053195
0.083648 0.082212 -0.388243
0.086983 0.109133 -0.337663
-0.048463 0.158875 -0.250771
-0.121653 -0.010898 0.350216
-0.228360 -0.012389 0.105027
0.001553 0.173015 -0.193729
-0.277613 0.089363 0.191951
0.235014 -0.124635 -0.076647
0.172745 -0.024645 -0.135615
0.118334 0.094516 0.396861
0.188862 0.129606 0.264395
0.031013 0.107113 -0.465563
0.017569 -0.077221 -0.465612
0.015824 0.087382 -0.081247
0.335787 0.020159 0.010388
-0.114570 -0.122084 0.443386
-0.148899 -0.167703 -0.105135
0.080396 0.085134 -0.390931
-0.040415 0.080929 -0.092799
-0.072904 -0.171213 -0.018531
-0.082312 0.194004 0.270474
0.007898 -0.126674 0.465253
0.007376 -0.090215 0.283308
-0.167720 -0.063249 -0.307693
0.141939 -0.105599 0.499995
0.090304 -0.057921 -0.378711
0.172848 0.200679 0.222654
-0.010876 -0.049055 -0.489369
0.229307 0.145890 0.092665
0.143826 0.139487 0.035803
-0.096133 0.153295 0.067268
-0.303836 -0.124764 -0.025449
-0.058340 -0.112245 0.218332
-0.040912 -0.131099 -0.391311
0.149807 -0.053962 0.500040
-0.088305 0.150447 -0.389454
-0.363100 -0.041700 0.056512
0.059021 0.152165 0.035010
-0.053164 -0.026706 -0.491003
-0.030032 0.198107 0.187388
0.110528 -0.000586 0.360694
0.232466 0.048893 0.142422
-0.297737 0.041557 0.018177
-0.000253 -0.218484 -0.078437
0.019682 0.070644 -0.169316
-0.005773 0.154999 0.362335
0.042923 0.148409 0.050945
0.114372 -0.063702 0.386443
-0.304763 -0.069876 0.055795
-0.260658 0.132009 0.222119
-0.185343 -0.012235 -0.106175
0.119542 -0.042560 0.279176
0.209385 -0.076897 -0.103759
-0.066633 0.169966 0.091332
-0.191590 -0.122518 -0.185178
0.252892 0.079280 0.155684
-0.121415 0.112227 -0.012612
0.019794 0.142433 -0.168455
-0.139886 0.149691 0.499996
0.083304 0.044491 -0.067617
0.044898 -0.108554 -0.405192
-0.071287 -0.163059 -0.217923
-0.115073 0.128086 -0.357963
-0.119717 0.051896 0.362021
-0.149307 0.020823 -0.125716
0.127346 -0.029920 -0.153652
-0.112856 0.186103 0.067094
0.174830 -0.072500 -0.136991
-0.196304 0.015023 -0.090778
0.090181 0.102420 -0.262300
-0.166541 0.074310 0.496988
-0.247075 -0.064788 0.059217
0.115717 0.179142 0.422859
0.342772 -0.010264 -0.014956
0.091021 0.203520 0.275755
0.068166 -0.197779 -0.097400
-0.119538 0.066565 0.358342
0.203042 0.064323 0.198261
-0.039472 -0.114699 0.146384
-0.298989 0.028932 -0.013214
0.141364 -0.174667 -0.047329
0.031277 0.165233 -0.227900
-0.124935 -0.055909 0.326669
0.027400 0.141280 -0.427711
0.123546 -0.076253 -0.185634
0.233049 -0.040220 -0.109131
0.139814 -0.024757 0.499996
-0.178019 0.009900 -0.244832
-0.125190 -0.111662 -0.348612
0.122574 0.143132 0.284554
0.324699 -0.092565 -0.038334
0.101271 -0.022820 -0.214391
-0.313961 -0.009353 -0.034314
0.112028 0.113241 0.354379
-0.076117 0.022909 -0.494402
-0.090123 0.135832 -0.435867
0.111855 0.045487 0.373760
0.196989 -0.035595 0.085793
-0.122734 -0.093706 -0.419861
-0.067331 -0.113768 -0.418819
-0.066422 -0.124834 -0.377432
-0.254164 0.131649 0.133805
0.123882 0.049350 -0.300557
0.184135 -0.040499 -0.123544
0.043248 0.169088 0.094986
0.004467 -0.097604 0.408016
0.072179 -0.119143 -0.309400
-0.118285 -0.009758 -0.090034
-0.148970 0.021313 -0.129245
-0.168673 0.086228 -0.206842
-0.078561 0.056153 -0.159510
0.339639 0.073819 0.095660
0.225251 -0.044036 -0.112146
0.307913 0.074704 0.037049
-0.167573 0.044467 0.453696
-0.151123 0.193280 0.461998
-0.093337 0.027546 -0.093790
-0.303970 0.065664 0.045208
0.117525 0.044849 0.325345
0.021540 0.153037 -0.406239
-0.212340 0.154288 0.107279
0.057446 -0.145074 -0.227678
0.010864 -0.001157 -0.497542
-0.182605 -0.005613 0.159101
0.267255 0.078137 0.022358
-0.144554 0.091584 -0.413121
-0.109934 0.093849 -0.028807
-0.053446 -0.109162 -0.439334
-0.255620 0.118900 0.227801
0.154855 -0.091926 0.489711
0.238534 0.169408 0.215087
-0.053648 -0.216151 -0.132086
0.033021 0.153012 -0.268852
0.255598 0.105053 0.053459
-0.028334 0.213091 0.230187
0.064556 0.075400 -0.202965
-0.053315 0.179477 0.278188
-0.233228 -0.159274 -0.056127
0.201453 -0.138054 -0.026039
0.071528 -0.177773 -0.139951
-0.087378 -0.169860 -0.206315
-0.050219 -0.126636 -0.395083
-0.082008 -0.101206 0.128066
-0.054632 0.106678 0.499996
-0.208979 0.126924 0.254995
0.137233 -0.047378 0.243316
-0.164790 0.099705 -0.219262
0.137347 0.156697 0.073252
0.095401 0.210909 0.274841
-0.118028 0.113378 -0.432163
0.063365 0.016408 -0.108963
-0.152637 -0.177467 -0.170337
0.247191 0.146351 0.199532
0.135214 -0.039202 -0.250459
0.003828 -0.073933 0.348167
-0.208692 0.177210 0.150697
0.158948 -0.165771 -0.043135
-0.032507 -0.100697 -0.460452
-0.279741 -0.060662 0.062783
0.017360 -0.123390 -0.389739
0.156974 -0.012885 0.474324
0.054816 0.066620 -0.468804
-0.263939 0.110629 0.087643
-0.102852 0.229979 0.224279
-0.208435 0.094317 0.002670
0.027983 -0.201991 -0.144221
-0.161511 0.152017 0.462984
0.122700 -0.027983 0.401255
-0.362626 0.017070 0.090940
0.129905 0.073983 0.499996
-0.052914 -0.114465 0.212440
0.337381 -0.084720 -0.018985
0.138047 0.070591 -0.059508
-0.168833 0.002839 0.455827
-0.252785 -0.148570 0.003683
-0.055458 -0.113940 0.107600
-0.048158 0.108184 -0.022039
-0.185172 -0.036250 -0.187028
-0.046104 -0.117646 0.424045
-0.008639 -0.079953 -0.474676
0.132769 -0.036059 0.499996
0.046997 0.066139 -0.192130
-0.117937 -0.141392 -0.220349
0.117863 0.206476 0.178378
0.136102 0.166579 0.420421
0.221226 0.105571 0.025639
-0.277963 0.087061 0.048408
-0.119508 0.133650 0.376436
0.072643 0.133090 -0.365752
0.189641 -0.090229 0.025102
-0.192775 0.005946 -0.099442
0.239273 -0.047934 -0.110245
-0.194302 0.188347 0.173137
0.105391 0.196205 0.274863
0.004245 -0.136629 0.037809
0.085543 -0.030879 0.499995
0.008477 -0.116802 0.420589
0.100943 -0.080586 0.377204
0.347492 0.011259 0.016821
-0.160578 0.178783 0.136887
-0.039295 0.165607 -0.353439
0.265447 -0.027408 -0.089651
-0.110254 -0.084803 -0.449828
-0.191865 0.054970 -0.062883
0.342638 0.064383 0.080827
0.165435 -0.040874 0.130244
-0.124696 -0.065480 -0.454478
0.071885 -0.079794 0.377355
-0.108856 0.114458 -0.221268
0.246621 0.146421 0.203970
0.120624 -0.085073 0.111250
-0.220893 -0.101702 -0.102006
0.010306 -0.205805 -0.184811
0.135000 -0.084931 -0.174690
0.098171 -0.098312 -0.295648
-0.096349 -0.076869 0.375001
0.052846 -0.184557 -0.039846
-0.186464 0.063443 0.254186
-0.157401 0.049880 0.422585
-0.024519 -0.166339 -0.253890
-0.130600 0.056992 0.401504
-0.123233 0.107194 -0.020517
-0.360910 -0.053838 0.053587
-0.172760 -0.001936 -0.307575
0.178397 0.035784 0.229687
-0.053398 0.156348 0.500040
0.040151 -0.115518 -0.394696
-0.060894 0.198219 0.485656
-0.156259 -0.087954 -0.231026
-0.019901 -0.119145 0.160595
0.221181 0.128083 0.232349
-0.093920 -0.121177 -0.378919
-0.027172 -0.118818 0.118054
-0.036573 -0.111195 -0.441381
0.047544 -0.116228 0.128331
-0.216739 0.096844 0.013891
0.056943 -0.210649 -0.079171
0.011431 0.017994 -0.496442
0.158514 -0.049571 0.128242
0.137181 0.177355 0.500435
0.055031 0.033126 0.499996
-0.121320 -0.070856 0.345091
-0.272240 -0.000514 -0.053363
0.070215 0.160823 0.076864
0.051521 -0.114722 0.195742
-0.138135 -0.127308 -0.192242
0.141684 0.002545 -0.214736
0.315411 0.021139 -0.011254
0.038936 0.064707 -0.146524
-0.113155 0.196906 0.467571
0.123511 0.175850 0.499996
-0.155222 0.019751 -0.121269
-0.126332 0.105054 -0.032105
-0.003998 -0.147351 -0.305320
0.320795 0.079182 0.054857
0.113725 -0.082517 0.169031
-0.165338 0.109466 0.471577
-0.054975 -0.207680 -0.049790
0.046683 0.189609 0.430326
-0.143751 0.075929 0.499996
0.129519 0.114382 0.412705
-0.306161 0.079070 0.174371
-0.165177 -0.021858 0.433642
0.012689 0.175130 0.499995
0.328186 -0.096353 -0.029590
-0.294456 0.006970 0.114954
0.077114 -0.020817 -0.094349
-0.162764 -0.030479 0.155707
0.077863 0.158684 0.394028
-0.038600 0.156186 0.359858
-0.154625 0.082966 -0.342162
-0.040144 -0.026509 -0.492771
0.092631 -0.102259 0.112950
0.214193 0.115830 0.231063
-0.140992 0.043479 -0.081716
0.044438 0.214164 0.255965
0.184332 -0.119405 -0.106600
-0.132278 0.055756 0.403695
-0.052909 0.066094 -0.171499
-0.139074 -0.005110 0.406112
-0.252098 -0.073861 0.053202
0.093453 -0.141192 -0.174617
-0.152439 -0.031077 0.198697
-0.164915 0.037452 -0.227434
-0.113524 -0.170067 -0.181053
0.009030 0.131935 0.028909
-0.095659 -0.165641 -0.013905
-0.165547 0.173172 0.126002
0.154812 -0.079864 0.478291
0.075218 -0.061977 -0.410402
0.335291 0.073353 0.105615
-0.112358 -0.099399 0.071600
0.280709 0.091475 0.043279
-0.138936 0.076876 -0.196220
0.362254 0.002582 0.037537
-0.167021 0.128873 0.014533
0.006232 -0.127042 0.485438
0.284150 -0.073693 0.016180
0.043782 0.061637 -0.148237
0.055834 -0.086672 0.307355
0.031029 0.190553 0.144874
-0.182382 -0.058323 -0.174024
-0.117412 -0.074033 0.210013
0.193379 0.146711 0.071054
-0.024134 -0.154382 -0.284958
-0.124041 -0.061254 0.375288
-0.085131 -0.124586 -0.368612
-0.001671 0.102843 -0.004234
0.250658 0.109719 0.067591
0.200433 0.101104 -0.029601
-0.122020 0.139317 0.499995
-0.093575 -0.203912 -0.086659
-0.009007 0.118704 -0.005520
0.189128 -0.014866 0.124089
0.086083 -0.124091 -0.251731
0.103463 0.221619 0.272933
-0.063462 -0.039457 0.499995
0.176267 0.159259 0.080206
0.124876 0.026360 0.270241
0.112096 -0.008355 0.376144
-0.172342 0.192527 0.196719
-0.363442 -0.022477 0.068045
-0.162930 -0.059900 0.499992
-0.009512 0.202224 0.229498
0.164103 0.173642 0.124947
0.040266 0.147252 -0.261548
-0.333743 -0.060877 -0.015930
0.225711 0.087860 0.001905
-0.065391 0.095227 -0.483540
-0.086552 -0.076078 0.327283
0.040563 -0.203838 -0.166850
0.089498 -0.089192 0.302832
-0.129093 -0.016851 0.272429
0.042754 0.027644 -0.482576
-0.065211 0.155299 -0.259194
0.155032 0.167269 0.499792
0.028325 0.182618 0.122329
-0.216336 -0.091638 0.043598
-0.082599 0.120785 -0.217150
-0.121962 0.069904 0.381424
0.210173 -0.073261 -0.104944
-0.152977 0.175142 0.097466
0.015499 0.069457 0.499997
0.156063 0.159317 0.083127
0.033146 0.187177 0.133792
-0.246766 -0.153607 -0.045385
0.024433 -0.104515 -0.436141
0.116292 0.024118 0.391317
-0.035703 0.080330 -0.098436
0.287393 0.023205 -0.041414
-0.158592 -0.189245 -0.067568
-0.171153 0.013842 -0.133636
-0.157613 0.079576 -0.361708
-0.189482 0.156739 0.110677
-0.086164 -0.094080 0.500236
-0.078159 -0.202407 -0.043436
-0.028262 0.145469 -0.182428
-0.097784 0.056616 -0.048517
-0.267316 0.095458 0.065062
-0.120960 -0.113018 -0.361951
-0.242211 0.082721 0.020890
-0.084026 0.200349 0.182812
-0.063821 0.151149 0.029809
0.121002 0.163233 0.405981
-0.043945 0.081352 -0.088933
-0.121806 -0.017420 0.360619
0.246259 0.011940 0.095580
0.100125 0.005945 -0.379674
0.064860 0.133463 -0.342209
0.235826 0.115664 0.203944
0.111316 0.136026 -0.002883
0.078509 -0.004268 0.500239
0.144138 0.068730 0.422026
0.037705 0.195197 0.499765
0.222015 0.007270 -0.088638
0.080244 -0.142391 -0.189834
0.006156 -0.120048 0.147707
-0.111826 -0.163410 -0.012933
0.072146 -0.033965 -0.437125
-0.116452 0.036788 -0.067103
-0.195501 -0.188362 -0.026133
0.138889 0.089436 -0.040295
0.120610 0.175064 0.064384
0.140863 -0.052606 0.188951
-0.152531 -0.067397 0.088342
-0.284423 -0.002635 -0.039795
0.045372 0.179373 0.421331
0.147884 -0.070354 0.424740
0.082932 0.079508 -0.417325
-0.100209 0.140519 0.041284
-0.182685 -0.025147 -0.210713
-0.021302 0.201159 0.277271
-0.198504 -0.039518 -0.130437
-0.145927 -0.053983 -0.430981
-0.029870 -0.092252 -0.469485
0.033714 -0.084380 0.392564
0.110617 0.039329 0.358845
0.254827 0.015542 0.094962
-0.319401 0.007413 0.113793
-0.096349 0.075723 -0.211938
-0.034954 -0.118048 0.181477
-0.088043 -0.097129 0.159641
0.056244 0.134750 -0.398657
0.031861 0.153861 0.045662
0.077352 -0.035141 -0.104730
-0.156965 -0.077479 -0.332509
-0.099011 -0.090584 0.145794
0.247448 0.005823 -0.083575
0.094666 -0.176286 -0.131392
-0.174045 -0.194763 -0.032919
0.225343 -0.007880 -0.094456
-0.198294 0.150851 0.102152
0.206488 0.098503 -0.002760
0.063136 0.050494 -0.139316
-0.132274 -0.063299 0.160704
0.357718 0.018864 0.052604
0.219117 -0.009407 -0.096431
-0.131599 0.011902 0.314207
0.054255 -0.090309 0.302371
-0.035545 0.160938 0.337765
-0.154735 0.158695 0.053809
0.155864 0.102236 -0.025267
0.113602 0.025311 0.334947
0.049326 0.153533 0.064586
0.176877 0.141592 0.266383
0.198920 0.047677 -0.086758
-0.146411 -0.088229 -0.370287
0.101358 0.029133 0.499995
0.137375 0.159604 0.081388
0.174015 0.172252 0.111763
-0.189644 -0.140011 -0.167099
0.046412 0.049869 -0.200636
0.086472 0.057795 -0.430816
0.156476 -0.096452 0.036938
-0.189986 0.202543 0.211820
-0.291965 0.083563 0.066453
0.338222 -0.007128 0.055882
0.114258 -0.123665 0.433938
0.116047 0.153597 0.021033
-0.030105 -0.119910 0.240231
-0.241532 0.147452 0.136369
-0.123349 0.219813 0.238044
-0.124765 0.081359 0.499996
-0.060480 0.202690 0.169897
0.153778 0.192851 0.473743
0.107742 -0.038644 -0.185839
-0.129716 -0.025177 0.315465
-0.074144 0.049196 -0.094930
-0.030116 -0.122840 -0.412208
-0.059006 -0.208900 -0.072287
0.048666 0.126775 -0.188843
0.023053 0.200010 -0.287510
-0.287813 0.045232 0.015110
0.026268 -0.036965 -0.480231
-0.136523 0.162239 0.315931
0.304553 0.058887 0.001080
0.059128 -0.106327 0.499996
-0.023071 -0.056411 -0.489791
-0.336275 0.001644 0.012540
-0.094219 -0.194905 -0.034312
-0.177277 0.008866 -0.172317
0.005453 0.091134 -0.033052
-0.215903 0.145518 0.090125
-0.314699 0.051455 0.047062
0.113534 0.066347 0.383180
-0.247133 0.075405 0.192687
-0.140442 -0.097650 -0.317246
0.125766 -0.109185 -0.162881
-0.067959 -0.075743 0.331909
0.125035 0.164465 0.054105
-0.129054 0.161548 0.408919
0.004464 -0.180261 -0.199268
-0.148398 0.143985 0.037975
-0.182535 -0.045171 -0.174038
0.035011 -0.117524 0.420710
0.293831 0.073898 0.033029
-0.179641 0.085757 -0.035379
0.286241 -0.083326 -0.078702
-0.037018 0.077269 -0.117413
-0.266518 0.137520 0.180498
0.248094 0.083212 0.162959
0.057360 -0.112840 0.202637
0.109736 -0.053524 0.347055
-0.120760 0.072416 0.347404
-0.150587 0.019582 -0.151334
0.173794 0.049276 -0.086803
-0.343168 -0.022483 0.089572
-0.159394 0.176318 0.465940
0.299856 0.048371 0.103328
0.115928 -0.079092 0.191027
0.246875 0.129833 0.166995
0.082398 0.096151 -0.030040
-0.278538 0.058293 0.021925
-0.044624 0.162319 -0.319950
0.145836 -0.151775 -0.028773
-0.254734 -0.091829 -0.082768
0.065233 0.216437 0.250389
0.112527 -0.114419 0.040407
0.026880 -0.107092 0.411507
