0.111103 -0.073173 -0.458344
-0.075083 0.191422 0.407780
-0.083801 -0.108190 -0.450056
-0.131223 -0.116131 -0.397176
-0.160457 0.206344 0.214940
-0.017581 0.084298 0.499062
-0.048649 0.242533 0.379460
-0.218395 -0.160052 0.353565
0.024008 -0.173235 0.201567
-0.134951 0.299172 0.382179
0.034068 0.222040 0.249165
-0.180993 -0.151365 0.499453
0.009169 0.116936 -0.092930
-0.013676 -0.096312 0.293004
-0.191214 -0.332469 0.360080
-0.026663 -0.380805 0.262047
0.101261 -0.357145 0.069112
0.169457 0.343872 0.097112
-0.101528 -0.082249 0.464577
-0.239499 -0.187480 0.340518
-0.171970 0.074742 -0.198334
0.046721 -0.125907 -0.022926
-0.126032 -0.032210 0.499462
0.241859 0.109501 0.068211
-0.021341 -0.216987 0.029732
-0.148875 0.265695 0.484978
-0.091637 0.307784 0.219658
0.086111 0.087372 0.499048
-0.216135 0.094039 0.387721
0.084602 -0.115384 -0.190436
0.154256 0.349220 0.179715
0.085595 0.340148 0.054626
-0.182298 0.187473 0.256656
-0.077626 0.215214 0.421086
-0.179594 0.093400 0.207746
-0.072682 0.272425 0.127892
0.041635 -0.101325 0.307065
-0.187499 0.062482 0.255919
0.113923 0.080463 -0.455127
-0.059894 0.134597 0.498937
0.218414 0.052264 0.149582
0.158098 -0.157166 0.149429
0.179892 0.329737 0.088207
0.052191 0.080464 0.499067
-0.139014 -0.004003 0.499328
0.045797 -0.131273 -0.220721
0.095582 -0.046878 0.252133
-0.113602 -0.302416 0.428229
0.010471 0.118270 -0.015164
0.080012 -0.079670 0.181306
-0.120874 0.246737 0.150892
-0.111657 -0.089604 0.118578
-0.131829 0.003672 0.499295
-0.086539 -0.033302 -0.017383
-0.140118 0.006766 0.169249
-0.050272 0.143429 0.496211
-0.095652 -0.130536 0.107633
0.205518 -0.152524 0.018551
-0.098454 0.284095 0.162785
-0.140871 -0.340863 0.263457
-0.199166 -0.030820 -0.180920
-0.130776 -0.003302 0.148292
-0.060717 0.162322 0.379194
-0.151457 -0.346316 0.299011
-0.092039 0.150862 -0.323674
0.036257 -0.159768 -0.213774
-0.125206 -0.307957 0.156745
-0.052238 0.356728 0.193779
-0.109515 -0.294176 0.133353
0.008596 0.143046 0.472268
-0.225758 -0.111746 0.327727
-0.232858 -0.196199 0.275433
-0.228995 -0.016250 0.347619
-0.227840 0.012082 -0.202786
-0.033447 -0.120027 0.280724
-0.000222 -0.214039 0.013737
-0.094266 -0.396929 0.253130
-0.143232 0.298069 0.347770
-0.191527 -0.325212 0.431803
-0.185249 0.083736 -0.297465
0.178895 -0.088564 -0.344220
-0.079328 0.274630 0.458860
0.208178 0.219556 0.016564
0.231156 0.152743 0.034790
0.096605 0.355942 0.262363
-0.156360 0.199977 0.196589
0.062429 0.268088 0.232920
-0.121823 -0.165655 0.111837
0.009471 -0.217723 0.212774
-0.025287 -0.226871 0.253749
-0.039463 0.389930 0.278258
-0.134109 0.287635 0.269524
0.246157 -0.016345 0.123468
0.023571 -0.182263 -0.322867
-0.163575 0.033860 0.499249
0.042607 -0.286612 0.194438
0.073497 -0.078364 0.334939
0.172749 -0.104799 -0.042803
-0.222372 -0.088229 0.277826
-0.025127 0.159058 -0.410513
-0.230719 0.011659 -0.197757
-0.178367 0.258618 0.306163
-0.040798 -0.177011 0.073860
0.016575 0.331004 0.093017
0.108358 0.000229 0.295957
0.061560 -0.109544 -0.097297
-0.020150 0.144422 0.310624
0.221706 -0.165974 0.135651
-0.198132 -0.241242 0.378506
-0.025430 -0.118876 -0.128882
-0.083115 -0.149558 0.363675
-0.170891 -0.348875 0.329254
-0.091581 0.261553 0.117812
0.242872 0.177488 0.099671
-0.177950 0.096293 0.499177
-0.213522 -0.236413 0.328010
-0.137822 -0.343225 0.264416
0.186482 -0.045065 -0.374019
0.077567 0.145854 -0.246374
0.001123 0.151609 -0.216595
0.095819 0.171836 -0.017846
-0.081547 0.170076 0.417554
-0.154609 -0.069815 -0.435012
0.221817 0.126898 0.144203
-0.092410 0.141021 -0.285713
0.096858 -0.139874 -0.243664
0.231213 -0.075876 0.145783
-0.129748 -0.279109 0.463818
0.143136 0.000917 -0.154341
-0.078135 -0.030184 0.499498
-0.186876 -0.056437 0.204096
0.086129 -0.290548 0.020858
0.030435 -0.013308 0.499366
0.060548 -0.387467 0.085389
-0.119207 0.128260 -0.372792
-0.024834 0.154440 0.070093
0.062506 -0.139266 0.175007
-0.109592 -0.089162 0.115651
0.221211 -0.159330 0.063348
-0.048374 -0.106441 0.056346
-0.058681 -0.160752 -0.310408
-0.222655 -0.084396 0.282551
-0.014210 -0.185147 0.056126
-0.114937 0.049113 -0.042707
0.103642 0.334544 0.050856
-0.071950 -0.188569 0.337554
0.167904 -0.188747 -0.000975
0.036434 0.045480 0.499228
0.130122 -0.039097 0.147943
-0.178567 -0.061002 -0.251020
0.036312 -0.179388 -0.298562
-0.133313 -0.087701 0.155713
-0.153243 -0.021423 -0.041841
-0.133807 0.115884 -0.366835
-0.090569 -0.303292 0.374871
-0.110710 0.058842 0.120175
0.089247 -0.046603 0.436965
-0.098582 -0.046660 0.101705
0.086256 -0.063918 0.228562
0.152196 -0.155759 -0.024618
0.229107 0.211000 0.070013
0.064669 0.382579 0.279712
-0.014539 0.139388 0.386071
-0.131682 -0.108316 0.499787
-0.190100 0.049898 0.236897
-0.034934 0.052439 0.499137
0.142047 0.063909 -0.205040
-0.159991 -0.135473 0.499723
-0.207700 -0.294205 0.286804
0.018809 -0.379788 0.077281
-0.195758 -0.157260 0.252831
-0.155443 -0.333862 0.419300
0.057333 0.175236 -0.336995
0.246650 -0.030254 0.054717
0.005169 -0.159646 0.222380
-0.094384 0.020709 -0.024683
0.185244 0.056934 -0.340733
0.171429 -0.017480 0.143847
-0.113576 -0.203030 0.428134
-0.023051 0.140523 0.400327
0.051517 0.161224 0.213316
-0.082931 0.268551 0.140662
0.076342 -0.063902 -0.481573
-0.174110 0.026676 0.499280
0.116966 0.348800 0.072373
0.025277 -0.191924 0.198247
-0.037014 0.140921 0.397718
-0.077731 0.095869 -0.459775
-0.215140 -0.124989 0.271728
-0.063164 0.353786 0.200621
0.111784 -0.343446 0.063009
-0.124695 -0.107728 0.486665
0.197189 -0.246138 0.129063
0.065832 -0.076406 0.472018
-0.233264 -0.229351 0.382538
-0.130395 -0.271037 0.157202
0.130588 -0.334321 0.069373
0.074061 -0.121935 -0.200013
-0.147072 0.287022 0.235064
-0.091933 -0.144376 -0.374257
0.136003 0.245575 0.157581
-0.207961 -0.191806 0.479266
0.027936 0.202286 0.013077
0.215784 0.053589 0.148825
-0.134476 -0.008922 -0.468351
0.140591 -0.280385 0.159979
0.012027 0.173017 -0.386240
-0.145296 -0.150743 0.499529
-0.034803 0.104856 -0.040961
0.057579 0.092106 0.499033
-0.019728 0.177222 -0.335855
0.180654 0.270478 0.026579
0.177701 -0.094750 -0.313704
0.004504 0.073344 -0.479240
0.036772 0.241385 0.022937
-0.044004 -0.262194 0.284190
-0.171719 -0.029175 -0.254120
-0.134387 0.074969 -0.078035
-0.065773 0.164694 -0.321392
0.131144 -0.126308 -0.248564
-0.068586 0.379488 0.294773
0.235545 -0.091423 0.057105
-0.018305 0.190047 0.063167
-0.103856 -0.076674 0.107925
0.184863 0.201909 -0.015445
0.154149 0.086604 -0.048506
-0.198543 -0.016249 0.499413
0.180947 0.095323 -0.050817
-0.114250 -0.245336 0.425460
-0.012518 0.140831 0.428195
-0.135358 -0.295239 0.455350
0.114774 -0.362386 0.117304
-0.195788 -0.221444 0.184020
0.026087 0.219726 0.259209
-0.219255 -0.130497 0.348408
-0.192495 -0.222894 0.178403
0.055115 0.144770 0.492689
-0.038395 0.339992 0.150640
0.079489 0.403807 0.195415
0.111954 0.152281 -0.312648
-0.108931 -0.328704 0.172204
-0.200500 0.024894 -0.378295
-0.008642 0.396686 0.335384
-0.081390 -0.121610 -0.150907
-0.050746 -0.120918 -0.131724
0.102290 -0.044037 -0.478093
-0.146343 0.126261 0.163365
0.101274 0.337576 0.055021
-0.092187 -0.126526 -0.188295
0.050626 -0.100164 0.266898
0.095337 -0.367404 0.075914
0.133177 -0.105083 -0.412909
-0.046084 0.168604 0.353130
0.052780 0.117757 -0.464789
0.191988 0.327046 0.107589
-0.029750 -0.374871 0.131844
-0.014227 -0.255224 0.240233
0.190123 -0.161715 0.010982
-0.014706 -0.094791 0.342184
-0.083826 -0.403119 0.255114
0.071578 -0.028931 0.499436
-0.192632 -0.295909 0.387970
-0.093378 -0.129477 -0.259697
0.251448 0.081380 0.103020
-0.176525 -0.344326 0.408489
0.094248 0.377534 0.104905
0.114312 0.077359 -0.456537
0.237371 -0.114606 0.082310
0.057100 0.108330 -0.070927
-0.064691 0.130501 -0.185491
-0.112785 -0.048173 -0.045829
-0.135544 -0.237872 0.482703
-0.008631 0.316000 0.074908
0.041072 -0.193371 0.185983
-0.027745 -0.140065 0.266043
0.189918 0.050905 -0.283861
-0.095074 -0.201152 0.062793
0.159055 -0.255231 0.021614
0.112820 0.193639 0.158386
0.001395 0.294681 0.068220
-0.061642 0.146183 0.387460
-0.137785 -0.367053 0.358768
0.009402 0.170072 -0.281623
-0.051199 0.124293 -0.141631
0.017266 -0.355968 0.070829
0.089731 0.091823 -0.107586
0.062981 0.054877 -0.484535
-0.170626 -0.055280 -0.135487
-0.083151 0.145484 0.433020
-0.020015 -0.231883 0.033396
-0.240120 -0.177895 0.335323
-0.071202 0.325514 0.446327
-0.093860 0.330331 0.341284
0.092215 0.304346 0.039573
-0.157154 -0.039374 -0.447952
-0.171397 -0.152362 0.178115
-0.042660 -0.307624 0.291908
-0.016264 -0.234610 0.031615
0.034030 0.405324 0.224008
-0.143647 -0.122509 0.499746
0.158809 0.109663 -0.310648
-0.059001 0.296160 0.436380
0.227595 0.052171 0.150335
-0.072902 -0.270303 0.334414
-0.133305 -0.035202 -0.044271
-0.139575 -0.074899 -0.441398
0.161447 -0.326101 0.104669
-0.058946 0.083189 -0.025145
0.076191 0.227595 -0.005461
0.129364 0.079826 -0.173291
-0.127567 0.197544 0.163276
0.177238 -0.305658 0.101997
-0.094013 0.192336 0.445658
-0.010717 -0.274829 0.239582
-0.216837 0.025374 -0.178273
0.062588 -0.084167 0.437494
0.019092 0.049394 0.499218
0.186720 0.154531 0.140217
0.182705 0.318571 0.075507
-0.133251 0.280060 0.220734
-0.153241 0.269126 0.407257
-0.220609 0.041902 0.300550
0.202972 0.191230 0.146145
-0.028164 0.142391 0.067939
0.127882 0.318591 0.198939
0.084586 0.149634 -0.010171
-0.047001 0.271104 0.078106
-0.104717 0.131183 -0.251835
-0.011567 -0.095859 0.411890
-0.134445 -0.308328 0.162769
-0.143933 0.114304 -0.282148
-0.111904 0.086490 0.499063
-0.199472 0.148123 0.302751
0.146813 0.040000 -0.174972
-0.127977 0.305755 0.273403
0.028214 -0.356838 0.073707
-0.029366 0.310190 0.399566
-0.062842 0.313991 0.124094
0.110827 -0.188345 0.154966
-0.207226 0.037350 -0.286838
-0.115723 -0.005768 0.499334
0.139424 -0.088182 -0.418780
0.097861 0.239108 0.179887
-0.149707 0.068209 -0.086487
0.002350 0.136196 0.338241
0.193292 -0.041248 -0.289155
0.112194 -0.098995 -0.178076
-0.199314 -0.086674 0.499637
-0.016400 0.307952 0.375972
0.042314 -0.097382 -0.475533
-0.158451 0.108200 -0.292458
0.046906 0.153480 -0.416473
-0.182925 0.039241 -0.203313
-0.060807 0.181320 0.105197
0.160148 -0.142439 -0.029810
-0.143857 0.055712 -0.443849
-0.022014 0.177023 -0.348147
0.178959 -0.087086 -0.347194
0.026125 0.175992 -0.385462
-0.222911 -0.165830 0.437884
-0.062728 0.354586 0.240012
-0.151502 0.181481 0.189770
-0.223356 -0.283402 0.295881
0.160479 0.063896 -0.409018
0.015212 -0.103868 0.242036
0.094863 -0.150560 -0.261662
-0.119131 -0.073991 0.127331
0.197705 -0.217757 0.147245
-0.199048 -0.271594 0.364221
-0.047575 -0.011460 0.499375
-0.134999 0.282824 0.217905
0.211281 -0.180055 0.054168
-0.014217 0.286069 0.352035
0.092363 -0.104138 -0.053846
0.054951 -0.036027 0.499483
0.143421 0.256849 0.158237
-0.146455 -0.335020 0.247773
0.071259 -0.123366 -0.448721
0.050265 0.375854 0.305604
-0.209696 -0.016821 0.240057
-0.197809 0.123485 0.499188
0.015072 -0.034615 0.499491
-0.195645 0.226124 0.323605
-0.026225 0.384185 0.173218
-0.150510 0.029146 0.499240
-0.212654 0.160697 0.347189
-0.099020 -0.049550 0.102789
-0.102952 0.121219 0.126456
-0.150670 -0.017242 0.183779
-0.052611 -0.393181 0.183669
-0.240540 -0.034149 0.348823
-0.038477 0.213438 0.346877
0.187616 0.315733 0.147184
0.065177 -0.230180 -0.010778
-0.096397 0.145616 0.482688
-0.056654 -0.182894 0.306662
0.141147 -0.332921 0.129906
-0.005328 0.127918 0.498935
0.042938 0.142266 0.447166
-0.118216 0.252877 0.487961
-0.015659 0.137278 -0.188733
-0.204472 -0.175528 0.454790
0.088437 0.109065 0.456820
0.084599 0.114117 -0.037025
-0.003823 -0.113361 -0.115153
-0.102406 -0.097674 0.107736
-0.116642 0.240750 0.491762
0.230078 0.144249 0.133321
-0.204177 0.068217 0.302968
-0.017190 -0.116957 0.025154
0.144091 -0.033083 -0.159639
0.113603 -0.148022 -0.278522
-0.123308 -0.076510 -0.080950
0.172009 0.357678 0.137116
-0.028980 0.326544 0.103343
0.019184 -0.120492 -0.016274
-0.145952 -0.063332 0.499669
0.109265 -0.170485 -0.038657
-0.029932 0.216440 0.056583
-0.202027 -0.176741 0.213612
0.189320 -0.069950 0.150359
-0.047488 -0.224320 0.023525
-0.097801 0.150503 0.460470
-0.149909 -0.141778 0.147020
0.122733 0.368589 0.094781
-0.081976 -0.286994 0.098302
-0.066217 0.084074 -0.471360
0.003089 0.346512 0.106742
0.189796 0.130006 -0.021725
0.135794 -0.346011 0.090517
-0.096683 0.226166 0.116919
-0.187122 0.244027 0.325184
0.249411 -0.078489 0.107170
-0.007545 -0.013324 -0.498790
0.018935 0.143725 0.483014
0.211936 0.193685 0.012293
-0.047834 -0.041567 -0.492651
0.046475 -0.156180 -0.416994
-0.120498 -0.125398 -0.309948
0.140607 -0.270874 0.024112
-0.069445 -0.370727 0.161268
-0.161011 0.248934 0.380623
0.168716 -0.139869 -0.021344
0.027036 -0.381010 0.196452
-0.121587 0.342637 0.353416
-0.112886 -0.136175 -0.369763
-0.025555 -0.378343 0.133976
0.163322 0.035726 -0.051918
0.075611 -0.266405 -0.000417
-0.173623 0.045885 -0.216111
0.091737 -0.164941 -0.305948
0.054146 -0.381010 0.160752
-0.057637 -0.217055 0.306370
-0.185015 -0.023973 -0.126476
0.082139 -0.059733 0.438474
0.166487 -0.011348 -0.214255
0.024334 -0.161630 -0.417422
-0.182989 0.027491 -0.085171
0.055822 -0.383956 0.152676
0.117774 -0.100727 -0.215527
-0.194610 0.149024 0.499124
0.021928 -0.238349 0.203536
0.108758 0.018475 0.330366
0.015413 0.382505 0.143016
-0.140498 0.041877 -0.456786
-0.026064 -0.150148 0.056264
0.178517 0.244587 0.008997
0.076269 0.279976 0.221596
-0.138923 -0.365489 0.351296
-0.085317 -0.007466 0.048134
0.153153 0.057820 -0.216999
-0.070537 0.115116 -0.111171
0.001344 0.160938 -0.264680
-0.022436 0.225461 0.327488
-0.040177 0.137467 0.074460
-0.123111 -0.157118 0.456829
-0.018772 0.261785 0.063870
-0.199522 0.147149 0.335762
0.148758 0.364647 0.175791
0.123288 -0.114881 0.148910
0.214601 -0.140614 0.024943
0.024631 0.174459 -0.297618
0.069724 -0.134451 -0.437778
-0.089092 -0.387802 0.294693
-0.188748 0.067790 -0.337805
-0.125077 0.059165 0.140794
-0.058430 -0.325774 0.321628
0.052903 -0.099321 0.233054
0.194289 0.006740 -0.275250
-0.211273 -0.215093 0.213604
-0.028086 -0.274410 0.263092
-0.029720 0.172798 -0.368329
-0.184375 -0.057078 -0.264804
-0.238207 -0.160761 0.345029
-0.104888 0.109669 -0.124102
0.100650 -0.084020 0.159049
0.090583 -0.052650 0.352297
0.074902 -0.217001 0.169565
-0.123140 -0.183664 0.110684
0.220906 -0.014948 0.002694
0.023230 0.142555 0.460656
-0.244140 -0.206986 0.355592
0.122115 0.147363 -0.031155
-0.086320 0.371978 0.344591
0.016980 -0.383739 0.122892
-0.134376 -0.314328 0.171684
0.107995 0.116162 -0.220707
-0.210925 -0.147762 0.363371
0.013301 0.277691 0.059128
-0.085893 -0.001092 0.036649
0.100590 0.094192 -0.161833
-0.141220 -0.072782 0.167808
0.137256 0.313963 0.189533
-0.139058 0.305835 0.459691
-0.040596 0.388507 0.352039
-0.234224 0.020151 0.411383
0.112227 -0.136281 -0.398147
0.121781 -0.135633 -0.257900
-0.152386 0.247112 0.256958
-0.051027 0.151769 0.360952
0.010896 0.268317 0.036678
-0.193857 0.031235 -0.274644
-0.162109 0.064562 -0.114418
0.123001 -0.353963 0.085239
-0.098135 0.184378 0.450808
-0.165037 0.089708 -0.371934
0.058273 -0.146206 -0.012675
-0.205671 -0.007544 -0.161402
0.172530 0.081164 -0.255237
0.059415 -0.348607 0.195351
-0.097723 -0.136480 -0.311673
0.199925 -0.234474 0.132205
0.126133 -0.230536 -0.004278
0.010934 -0.096304 0.333978
-0.166199 0.180938 0.208560
0.104147 -0.016626 0.347278
-0.100180 0.285987 0.172435
-0.190893 -0.329647 0.426117
-0.078778 0.059155 -0.039915
0.194954 0.026620 -0.296196
-0.016410 -0.106851 -0.475140
0.080998 0.019273 0.499237
-0.048605 -0.193124 0.076262
0.006648 0.137204 0.376230
0.190008 0.054595 -0.291608
-0.015115 0.159755 0.301403
-0.206186 0.040260 -0.305862
-0.036889 0.154985 -0.410693
-0.201442 0.042360 -0.356400
-0.087374 -0.295741 0.110253
-0.038697 -0.135154 0.281929
0.109501 0.019404 0.230830
0.120259 -0.090623 -0.191764
0.108686 0.012403 0.318950
0.032900 0.122487 -0.190766
0.116899 -0.048874 0.152148
-0.116260 -0.122317 -0.280069
-0.203548 -0.013577 -0.364848
-0.184724 0.196431 0.296695
-0.185034 -0.064559 -0.272061
0.192055 0.047945 -0.314869
-0.067889 -0.191484 0.064603
-0.053579 0.345877 0.421358
0.091392 0.078287 -0.468780
-0.125434 0.303368 0.211684
0.142708 0.126859 -0.281076
0.166983 -0.131787 -0.023884
-0.186750 -0.070109 -0.335647
0.186448 0.050229 -0.357624
-0.049857 0.299316 0.422792
-0.006916 0.167727 -0.402243
0.170158 0.112484 -0.051102
-0.111899 -0.292333 0.421851
0.076713 0.012609 -0.490708
-0.160660 0.270344 0.252874
-0.203472 -0.227388 0.391872
-0.069678 -0.190942 0.332611
-0.106963 0.235914 0.132875
0.204257 -0.137903 0.155479
-0.168524 0.068992 -0.218197
-0.095297 -0.004966 -0.015948
-0.211858 -0.132755 0.253895
0.071458 -0.095240 -0.469972
-0.164163 -0.281647 0.251992
0.203912 0.014793 0.147587
0.084868 0.124328 -0.027658
-0.209808 -0.239572 0.388093
-0.093665 -0.116403 -0.139569
-0.060057 -0.131496 0.319985
-0.064615 0.142832 0.092251
-0.136570 -0.121682 0.144112
-0.059155 -0.240351 0.031625
-0.080839 0.109615 -0.099626
-0.087769 0.024480 0.499219
0.187580 -0.072481 -0.027747
0.007788 0.150789 -0.426116
-0.168055 0.048224 -0.082151
0.195207 -0.191617 0.156952
0.144671 0.050908 0.141667
0.243650 -0.008165 0.128446
-0.044905 -0.029137 -0.495031
-0.071783 -0.127357 -0.180013
-0.138367 -0.121272 0.140204
-0.207447 -0.134932 0.263866
-0.018220 -0.111812 -0.009964
-0.166512 -0.089414 -0.373519
0.017706 0.164501 -0.254760
-0.226826 -0.056947 0.363080
0.052782 0.164567 0.015539
-0.031531 -0.121105 -0.137545
0.002826 -0.264927 0.224757
0.119875 -0.057338 -0.111819
0.142839 -0.302814 0.052120
0.179007 -0.000583 -0.399882
-0.140699 0.279168 0.294389
0.051975 -0.091300 0.497542
0.105807 0.054629 0.402760
-0.210478 -0.060629 0.219482
-0.079969 -0.302062 0.353242
0.046713 0.147280 -0.250849
0.193151 -0.162559 0.012491
-0.138410 -0.273372 0.180535
0.096020 -0.048377 0.177102
0.186971 0.095180 -0.047624
-0.033030 -0.002281 -0.498631
0.037524 -0.253021 0.193293
-0.051020 -0.097906 0.032942
0.117907 0.071042 -0.455681
-0.157127 0.275443 0.295674
-0.227392 -0.249026 0.287953
0.170221 0.208266 0.143461
0.083685 -0.083325 -0.468983
-0.219198 -0.052504 0.245919
0.140729 0.090669 -0.037113
-0.206016 0.028498 -0.185178
-0.165245 0.071298 -0.134070
0.009980 -0.149304 0.218582
-0.026597 -0.159568 -0.278923
-0.004508 0.371330 0.365143
0.208519 -0.143372 0.156570
0.047116 -0.108129 0.201895
-0.209906 -0.271527 0.366590
0.192797 -0.153641 0.006442
-0.202281 -0.295490 0.285539
-0.057670 -0.209846 0.306754
-0.144373 0.097306 0.189721
0.190312 0.118142 0.139608
0.105220 0.057914 0.399865
-0.088446 0.368147 0.379356
-0.049414 0.194164 0.360405
0.120676 -0.145190 -0.039542
-0.155130 0.091200 -0.152976
0.179749 -0.014788 0.144633
0.165066 -0.215685 0.152831
0.142172 0.216985 0.150055
0.201531 -0.024889 -0.312524
0.015040 0.169245 -0.271384
-0.126323 -0.309310 0.159563
-0.032927 0.056244 0.499127
-0.171834 0.100046 0.192188
-0.033780 -0.315271 0.280345
-0.147050 -0.358178 0.381822
0.094199 -0.119469 0.158962
0.148718 -0.010043 -0.178704
-0.196339 -0.052266 -0.325494
0.035535 0.255437 0.026956
-0.006210 -0.162702 0.235241
-0.014168 0.110704 -0.108387
-0.181112 -0.044067 -0.268700
-0.084978 -0.173299 0.366548
-0.147446 0.067934 -0.431662
-0.035077 -0.020169 0.499421
0.083481 0.112076 0.300357
-0.044951 0.145066 -0.416929
0.151895 0.373781 0.162429
-0.230656 -0.000645 0.298406
-0.118196 0.130406 -0.351833
-0.212580 -0.128923 0.267926
-0.218799 0.086618 0.465660
0.039923 0.395107 0.297598
0.233870 0.120174 0.129804
-0.228361 -0.068480 0.429877
-0.197976 0.125574 0.283697
0.183889 0.046224 0.142543
-0.074666 -0.097066 0.080150
0.084267 0.303124 0.030995
0.235701 -0.016083 0.042645
-0.200515 -0.028317 -0.361792
0.098516 0.105407 -0.044480
-0.237134 -0.182726 0.327204
0.047695 -0.113419 -0.104194
-0.018418 0.370408 0.138113
-0.164024 0.268983 0.443440
0.162238 0.058055 0.140967
-0.094509 0.206021 0.110121
-0.126493 0.124260 -0.219041
0.100986 0.089171 -0.078852
-0.181330 -0.024199 -0.122540
-0.098597 -0.181684 0.395034
0.101144 -0.021053 0.393815
-0.044562 0.150142 -0.262303
-0.088893 -0.106798 -0.449450
-0.106411 -0.197465 0.096296
0.085931 -0.132648 -0.028638
-0.023731 0.343744 0.134128
0.222794 0.195015 0.030571
0.025928 -0.359974 0.075110
-0.206058 0.202491 0.348042
-0.193677 0.041268 0.243668
0.165213 -0.230319 0.153740
-0.238723 -0.222936 0.372833
-0.206111 0.094526 0.340623
0.149504 0.256198 0.156513
-0.067501 0.164615 0.103346
0.124410 -0.120709 0.149060
-0.103682 0.130123 -0.265937
-0.149181 0.227979 0.494035
0.133016 -0.126927 -0.385901
0.199468 0.057899 -0.023587
0.082273 -0.069462 0.290832
0.139115 0.129529 -0.265934
0.002960 -0.312702 0.041281
0.004530 -0.097165 0.395943
-0.116840 0.134132 -0.333859
0.173251 -0.070631 -0.050987
0.058531 -0.384126 0.149088
0.212351 0.050887 0.147930
0.056682 0.401284 0.270014
-0.092822 -0.130291 -0.252658
-0.204515 -0.028278 0.228992
-0.169731 0.078894 -0.169298
0.025488 0.098823 0.499013
-0.035000 -0.092551 0.381996
0.232942 -0.026243 0.037123
0.104445 -0.373534 0.104842
-0.070524 0.168487 0.396449
0.066482 0.338764 0.282438
0.172701 0.051316 -0.052192
0.163423 -0.244102 0.018538
0.030790 -0.392654 0.142788
-0.142837 -0.072871 0.170647
0.138177 0.095481 -0.418775
0.005763 -0.150120 0.028492
-0.094205 0.133724 -0.235217
-0.171844 0.202816 0.268769
-0.230695 -0.191772 0.306779
-0.211180 -0.049338 0.221183
-0.226293 -0.039393 0.271892
-0.182348 -0.138133 0.202661
0.108889 0.029088 0.179102
-0.146111 0.055942 0.499178
-0.148828 0.109542 -0.220754
0.104683 0.060819 0.440025
0.147004 -0.022880 -0.053014
-0.226830 0.003503 0.463879
-0.093416 0.023179 -0.022549
0.188350 0.003885 0.144903
0.041048 0.121434 -0.187839
-0.098883 0.131031 -0.275177
0.040397 -0.101515 0.389680
0.118890 -0.152277 -0.313324
-0.169940 -0.075127 -0.196679
-0.087411 0.052029 0.499137
0.044027 0.177018 -0.313159
0.067308 0.108707 -0.052596
-0.005460 0.153534 -0.422235
0.230196 -0.112356 0.051838
0.056800 0.097590 0.499016
0.185062 0.053573 -0.372557
0.107611 -0.009192 0.196735
0.135548 -0.008744 -0.085840
0.168220 -0.103796 -0.269027
0.232633 0.165282 0.050650
0.089247 -0.273830 0.169984
-0.095819 -0.115623 -0.438182
-0.063355 -0.085266 0.003243
-0.051366 0.345982 0.164550
0.098804 -0.212765 -0.014223
0.148896 -0.252626 0.155577
0.205862 0.101956 0.143289
-0.071938 0.323253 0.149721
0.199425 -0.015617 -0.345440
-0.238498 -0.061925 0.336890
-0.184083 -0.271816 0.338159
-0.191238 -0.043980 -0.395201
-0.195945 -0.196390 0.200262
-0.141575 0.103240 -0.157393
-0.149461 -0.248132 0.120231
0.119755 0.108599 -0.425457
0.118470 0.061086 -0.124743
-0.144699 -0.281432 0.195441
-0.200942 -0.006598 -0.148706
-0.211284 -0.130828 0.485470
-0.055140 0.296843 0.120712
0.023738 0.181827 -0.357888
-0.076790 -0.207093 0.344139
0.134541 -0.066034 -0.162915
-0.180900 -0.241723 0.485961
0.008658 -0.114979 0.231579
-0.078545 0.172581 0.411850
0.004994 0.278931 0.058739
-0.089548 -0.142577 -0.322770
-0.203999 0.025886 0.499326
-0.135841 0.327038 0.382338
0.115236 0.132602 -0.243074
-0.159596 -0.280182 0.467747
-0.219462 -0.208045 0.229749
0.029258 -0.342228 0.059267
-0.137933 0.058215 0.165067
0.208379 0.230819 0.026358
0.091896 -0.054459 0.245254
0.183805 -0.085778 -0.023636
-0.140199 -0.130539 0.126839
-0.154939 0.093470 0.194439
0.024310 -0.102138 0.241287
0.240882 0.075504 0.049032
0.193115 -0.136333 -0.014376
-0.210756 -0.162164 0.401715
-0.035767 0.390457 0.286093
0.026481 0.200015 0.251768
0.209471 -0.090834 -0.008997
0.191583 -0.055834 -0.033242
-0.167669 -0.159111 0.499328
-0.097274 0.250260 0.118333
-0.188095 0.198129 0.418830
0.130854 0.323709 0.049070
-0.172917 -0.196448 0.497385
0.015662 -0.198987 -0.000092
0.124380 -0.342679 0.072186
0.035394 0.166706 -0.260107
-0.125204 0.305895 0.469277
0.187615 -0.070262 -0.024858
-0.079063 0.287091 0.469935
0.040417 -0.217528 -0.011145
-0.131187 -0.144840 0.488966
0.103853 -0.146823 -0.028122
-0.159636 -0.096034 -0.191249
-0.198935 -0.270988 0.419802
-0.079111 0.046383 0.003273
-0.120144 0.055563 -0.456951
-0.203770 0.030485 -0.169155
0.217405 0.277012 0.095686
0.017529 -0.385899 0.111502
0.003524 -0.143743 -0.180630
-0.079989 0.108781 -0.096895
0.060113 0.150740 0.202433
-0.172861 0.262259 0.343491
-0.083269 -0.122171 0.094325
-0.083509 -0.020094 0.499431
-0.168563 -0.097589 0.499691
-0.059798 0.094576 0.499032
0.033388 -0.304094 0.032935
-0.135640 0.140266 0.150619
0.063714 0.119411 -0.185390
-0.026463 0.263867 0.064084
-0.061853 0.065205 -0.477765
-0.213485 -0.134390 0.450001
0.050228 0.318544 0.284047
0.157890 0.017694 -0.432374
-0.089238 0.368456 0.372736
0.007091 -0.397577 0.161382
-0.044844 0.100814 0.000479
0.174974 -0.100327 -0.305967
-0.189511 -0.190394 0.183729
-0.042211 -0.372244 0.298699
-0.227580 -0.099924 0.300578
0.128657 -0.077808 -0.444723
0.210127 -0.062540 0.155160
-0.208526 0.126773 0.472314
-0.035931 0.296849 0.398226
0.114985 0.393532 0.157541
0.041210 0.358431 0.333346
-0.095471 0.315800 0.198704
-0.143493 0.307500 0.296663
-0.049668 -0.403853 0.208984
0.118050 -0.107727 -0.424641
-0.031638 -0.165500 -0.400192
-0.046125 -0.144441 -0.259343
0.093854 -0.293635 0.170915
0.162974 0.314390 0.176340
-0.184058 -0.035853 -0.190278
-0.012239 -0.178867 -0.319166
-0.152133 -0.293683 0.200245
0.080914 -0.071212 0.280176
0.081768 0.117906 0.186520
-0.026983 0.323440 0.408328
0.155690 0.113584 -0.359510
0.209164 0.108758 -0.020201
-0.065176 -0.174854 0.091474
-0.121171 -0.126692 0.144128
0.096526 0.376020 0.243714
0.138373 -0.263781 0.012341
0.031802 -0.068342 0.499737
0.105817 -0.297106 0.027737
0.039424 0.129813 -0.220824
-0.112494 -0.067747 -0.061371
-0.092920 -0.222132 0.053455
-0.086038 -0.232478 0.361278
0.108705 0.020534 0.333827
0.047447 0.389207 0.295226
0.183519 -0.193933 0.027960
-0.175844 0.153790 0.499038
-0.174474 0.054318 -0.246339
0.166318 -0.025910 -0.218402
0.008987 0.116792 -0.086172
-0.001332 0.214079 0.293921
-0.140967 0.241314 0.202819
0.047398 -0.129236 -0.452107
-0.039351 -0.138348 0.282157
0.068748 0.237362 0.209437
-0.065871 -0.113012 0.340751
0.169201 0.093331 -0.266755
0.181542 0.039776 -0.383816
0.166448 -0.077529 -0.395121
0.041223 0.112384 -0.083621
0.053581 0.127895 0.253362
0.005279 0.032097 -0.494411
0.122977 0.121058 -0.399963
0.198320 -0.010715 -0.357617
-0.002928 0.052012 -0.489296
0.192505 -0.063004 -0.312346
-0.058233 0.158982 -0.282892
-0.161266 0.255619 0.445246
-0.041204 0.159355 -0.279366
0.207824 0.233150 0.149466
-0.167401 -0.154753 0.164377
-0.211137 -0.238059 0.233071
-0.141857 -0.292133 0.171720
0.189153 0.064285 -0.049679
0.004258 0.035453 -0.494508
0.103265 0.157023 0.160341
-0.141230 0.098654 0.182213
0.023119 0.116060 -0.052301
-0.198705 0.172861 0.426716
-0.206041 0.152161 0.404064
-0.101465 0.104551 -0.103769
-0.072587 0.274736 0.122879
-0.206435 -0.175336 0.223464
-0.154046 0.261580 0.255124
0.111979 0.319286 0.213184
0.002295 -0.157552 0.225965
0.122157 0.116095 0.145597
0.026745 0.060801 0.499119
-0.144147 -0.089224 0.499709
0.066313 0.139778 0.403654
0.123854 0.347212 0.071528
0.057673 -0.114555 -0.157612
-0.103195 -0.198358 0.404026
-0.120848 -0.042802 -0.471678
0.027550 -0.183056 -0.314222
-0.039674 0.105836 0.020641
-0.153840 0.254630 0.377881
-0.080499 0.251845 0.443734
-0.126718 -0.183674 0.463325
0.234077 0.156249 0.044348
-0.041251 0.133302 -0.195180
-0.212962 -0.120814 0.489386
0.101031 -0.033645 0.229595
0.186005 -0.000168 -0.242785
-0.117070 -0.325816 0.422504
-0.133263 -0.285917 0.461514
0.156690 0.194267 -0.023810
-0.172737 -0.302273 0.271115
-0.170832 -0.048999 0.499524
-0.082325 -0.297695 0.101546
0.025402 0.006282 0.499282
0.080294 0.116295 0.258831
-0.126771 0.251288 0.184767
0.131134 -0.031731 -0.456477
-0.208041 -0.124048 0.286965
-0.077542 -0.342725 0.133817
0.024898 -0.119020 -0.186714
-0.197136 0.132555 0.323638
0.161460 0.035893 -0.426353
-0.154807 -0.055341 -0.443155
0.138166 -0.125208 -0.254273
0.197743 0.318474 0.105178
0.147578 -0.101961 -0.394467
-0.203006 0.041787 -0.281931
-0.092350 -0.252588 0.057950
0.013565 0.138322 -0.222972
0.211478 0.298973 0.111575
-0.017988 -0.397218 0.169157
-0.118773 0.133842 0.156976
0.043406 0.074949 -0.480607
0.166188 -0.033568 -0.219102
0.233818 -0.109657 0.072346
-0.103672 0.132384 -0.290020
-0.011907 -0.120768 -0.163841
-0.183874 0.230703 0.478180
0.068284 0.404593 0.217662
-0.226502 -0.110177 0.408860
-0.081506 0.370692 0.386018
-0.086908 -0.019284 0.017294
-0.062056 0.258767 0.090070
0.109503 0.205628 0.161491
0.012563 0.139446 0.028814
0.122334 -0.150725 -0.311054
-0.156037 -0.260101 0.134930
0.161786 0.081199 -0.391438
-0.140358 -0.152967 0.144281
-0.162554 -0.319204 0.230849
0.014206 0.302591 0.056531
0.217942 -0.184750 0.071435
0.069116 0.308930 0.049859
0.010217 -0.098766 -0.477266
0.050953 0.129495 -0.221636
0.098952 0.084102 0.493986
0.106516 -0.006340 0.331942
0.030936 -0.116741 -0.140211
0.045397 -0.101495 0.306954
-0.200465 0.100711 0.331740
-0.213686 0.009948 -0.169198
-0.159333 -0.282590 0.203511
-0.088282 -0.358595 0.359855
0.082095 -0.153340 -0.261209
0.172048 0.081892 -0.373540
-0.087361 -0.019932 0.012773
-0.122823 0.252878 0.196561
-0.179952 0.170128 0.276884
0.107718 -0.104676 -0.443007
-0.119207 -0.172752 0.117506
-0.226819 0.044199 0.307408
-0.097655 -0.379816 0.205116
-0.174784 -0.069564 -0.397791
-0.020483 -0.207025 0.021487
0.033572 -0.178688 -0.291842
-0.161944 -0.274155 0.156836
0.062999 0.030915 0.499201
-0.041581 -0.400184 0.223161
0.140298 0.209912 -0.023781
0.143203 0.127727 -0.355169
-0.224983 0.018250 0.421681
0.225779 -0.128219 0.142163
-0.084057 0.371261 0.299596
-0.170802 0.046148 -0.235847
0.100795 -0.079815 -0.463193
-0.167224 -0.037895 -0.099260
-0.047140 -0.142222 -0.255862
-0.106557 0.355853 0.400472
0.047997 -0.148957 0.184132
-0.225929 0.071611 0.393340
-0.024449 -0.361793 0.087939
0.161170 0.099526 -0.376286
-0.165628 -0.326995 0.254436
-0.050200 0.126691 -0.154480
-0.059122 -0.266654 0.037055
0.112097 0.054675 -0.466235
-0.145711 -0.115042 -0.359208
0.194988 0.023407 -0.344735
-0.199427 -0.272035 0.219618
0.150423 0.047302 0.141797
-0.198620 -0.115592 0.499668
0.227409 0.067035 0.148897
-0.136977 -0.073044 -0.090717
0.178085 -0.214581 0.026240
-0.086863 -0.243985 0.362531
0.102358 0.069421 0.179064
0.001908 0.180487 -0.321235
0.058608 -0.086395 0.453030
-0.006067 0.152025 0.054356
0.003784 -0.234703 0.012046
0.040458 0.126591 -0.210435
0.043356 0.129475 0.261979
-0.196684 0.174693 0.465134
0.202378 0.125129 0.142030
-0.216222 -0.203549 0.401207
0.233635 0.133241 0.128210
0.054490 -0.152538 -0.007022
-0.004855 0.119791 0.014477
0.018626 0.135445 0.498903
0.111989 0.079943 -0.457106
-0.161344 0.008714 0.222298
-0.024484 -0.362805 0.091323
0.092073 0.156458 -0.381081
0.006122 -0.162747 -0.418813
-0.166229 0.063270 0.499202
0.102021 0.074398 0.398029
-0.053410 0.360556 0.258159
0.076366 -0.157614 -0.265549
-0.172317 0.080520 0.199462
-0.068366 0.208232 0.083589
0.076674 -0.069990 0.421198
0.078633 -0.184234 0.164231
-0.214083 -0.272015 0.255429
-0.203671 -0.232490 0.409689
-0.196571 0.177850 0.461172
0.040779 0.393343 0.148840
0.138082 -0.058317 -0.192942
0.120586 0.331165 0.216493
0.096604 -0.171309 -0.032274
0.069571 0.142612 -0.008728
-0.190907 0.103500 0.262576
0.056244 -0.067759 0.499723
-0.103021 -0.124757 -0.188167
-0.153971 -0.096458 0.179531
0.153151 -0.085431 0.147720
-0.111550 -0.128433 -0.402015
0.077603 0.369866 0.275911
-0.088601 -0.345301 0.140240
-0.032096 -0.276996 0.268892
-0.068776 0.171335 0.393522
-0.162503 0.208154 0.258233
-0.114186 -0.314596 0.430994
-0.012728 0.397269 0.284834
-0.127186 -0.369025 0.352951
-0.144166 0.007096 0.499293
-0.210038 -0.154117 0.358645
-0.080377 0.076283 -0.468562
-0.013415 -0.094834 0.345034
0.184922 0.002628 -0.243463
-0.026852 -0.093745 -0.483961
-0.015429 0.143267 -0.249439
-0.138381 0.240968 0.491368
-0.055091 0.153424 0.088994
0.110814 -0.108486 -0.040126
-0.124781 -0.120258 0.465114
-0.129026 0.253909 0.201771
0.180351 -0.013190 -0.232183
-0.017172 0.206655 0.312679
-0.209036 -0.028534 -0.294394
0.130989 -0.048149 -0.146731
0.130114 0.052780 -0.453360
-0.030129 -0.093731 -0.483354
0.036964 -0.100571 0.275740
0.105942 0.001695 0.394959
0.248787 0.027846 0.058711
-0.202403 -0.025310 0.499443
0.157953 -0.118133 -0.332058
-0.028749 0.142110 0.457809
-0.039179 -0.130149 -0.203595
-0.041955 0.078663 0.499069
-0.007219 0.007454 -0.498632
0.066882 -0.010553 -0.489932
0.065461 -0.084815 0.364937
0.165905 0.090316 -0.368776
0.001355 -0.094828 0.499299
-0.001047 -0.292790 0.233559
-0.210219 0.110267 0.404769
-0.157204 0.260707 0.323463
0.192634 -0.243207 0.078015
-0.013702 0.391865 0.196047
0.084810 -0.097681 -0.105205
0.176230 0.095508 -0.052235
-0.065775 0.058475 0.499120
0.061399 -0.141325 -0.017439
0.000189 -0.096088 0.446767
-0.117188 0.127642 -0.222322
0.167910 0.354564 0.116943
0.148223 0.015644 -0.442468
0.191020 -0.144959 -0.013026
0.191139 0.033735 0.143991
0.117052 0.143313 -0.276160
0.192356 -0.021846 -0.043947
0.052062 -0.305722 0.191306
0.215248 -0.194086 0.070032
0.201718 -0.011386 -0.310300
-0.142847 -0.129731 0.499723
0.091228 -0.108198 -0.171550
-0.096241 0.034571 -0.482173
0.054316 -0.063631 -0.485392
0.122564 -0.147146 -0.284003
0.143556 0.010467 -0.164891
-0.002915 -0.370374 0.077808
-0.103232 -0.380247 0.316305
-0.098741 -0.003453 0.111579
-0.205011 0.042376 -0.308025
-0.176271 0.231096 0.493087
0.195260 -0.214891 0.039983
0.192681 0.036033 -0.283060
0.223158 -0.197665 0.112168
0.179507 0.279850 0.039815
0.082358 -0.295119 0.175749
0.144728 0.110087 -0.248468
-0.071394 0.138283 0.095938
0.083383 0.112434 0.305314
-0.210982 -0.217018 0.423494
-0.120810 -0.318119 0.432131
0.115991 -0.074712 -0.085160
0.177031 -0.020064 0.144556
0.034138 -0.100358 0.461442
-0.081091 -0.189439 0.072707
-0.181462 -0.012996 -0.104793
-0.232916 0.009115 0.409036
0.050063 -0.252816 0.185402
-0.161320 0.084325 0.198355
0.132800 0.087408 0.141924
0.223414 -0.139122 0.142482
0.071722 -0.007938 -0.489039
-0.179760 -0.057277 -0.256202
-0.084477 0.129908 0.105381
0.098109 0.155221 -0.379135
-0.205734 0.006857 -0.341896
-0.125131 0.258279 0.486342
0.107857 0.032785 0.378083
0.239247 0.104849 0.047296
-0.208395 0.014869 0.499359
0.211930 -0.203915 0.132441
-0.017171 0.259439 0.066212
-0.128876 0.100130 0.159885
0.033624 0.181061 -0.337867
-0.087095 0.000371 0.094792
-0.100293 -0.212984 0.396335
-0.100713 -0.332689 0.404869
0.036351 -0.083085 0.499865
-0.060876 -0.281863 0.092192
0.128489 -0.079684 -0.192283
-0.084447 0.143035 -0.409047
0.111635 0.218766 -0.021113
0.052876 0.403856 0.167136
-0.212397 -0.056007 0.499545
0.122533 0.327873 0.049907
0.121526 0.101449 -0.215161
-0.192432 0.184408 0.455480
-0.192145 0.098515 0.255649
0.209248 -0.186120 0.146354
-0.147609 0.282384 0.424828
-0.184694 -0.224149 0.164699
0.101818 -0.158076 -0.293162
0.095405 -0.352694 0.163123
-0.035136 -0.129817 -0.203832
0.135656 0.132530 -0.362007
-0.082524 0.344102 0.285006
-0.207817 0.023664 -0.192806
0.042544 -0.101453 0.283474
0.208205 0.164935 0.005377
-0.131466 -0.041813 -0.465970
-0.183754 -0.081383 0.177262
-0.184182 -0.317152 0.305941
-0.195081 0.002376 -0.417281
0.144855 -0.312627 0.150679
-0.122332 0.203079 0.156098
0.071785 0.168662 -0.365740
0.174367 0.068320 -0.382385
0.128163 0.309063 0.027182
0.052803 0.366543 0.099455
-0.054008 0.218846 0.088004
-0.094941 -0.014671 0.096887
-0.182544 0.031428 -0.114197
-0.217842 -0.011352 -0.227680
-0.054432 -0.028785 -0.494232
-0.060394 -0.377733 0.301306
-0.038767 0.172798 -0.329886
-0.122388 0.326013 0.337109
-0.077671 -0.299585 0.348325
-0.079066 0.372488 0.378017
0.050033 0.182865 0.026574
0.158848 -0.059441 0.146868
-0.060961 -0.130178 0.080188
-0.112528 -0.127401 -0.297748
0.037381 -0.183688 0.007397
0.244367 -0.044902 0.050665
-0.135189 -0.248843 0.479775
0.236235 0.070062 0.040069
-0.066346 0.146856 -0.264471
0.075056 -0.318679 0.181850
-0.179957 -0.001418 -0.102797
-0.086150 0.269988 0.120487
-0.157398 -0.319483 0.217047
-0.184759 -0.159306 0.199653
-0.156606 -0.057033 0.201865
0.194291 0.309667 0.083160
0.246309 -0.018905 0.067728
0.071085 -0.174617 -0.324190
0.137262 0.309115 0.185667
0.111952 0.088239 -0.453329
-0.159788 0.224151 0.246403
0.238786 0.028460 0.035539
-0.179325 0.080790 -0.263009
-0.012329 0.165456 0.298054
-0.159076 0.100038 -0.194456
0.112426 0.252824 0.173003
0.098075 0.086610 0.492334
-0.189466 0.110288 0.245201
-0.203978 0.189103 0.412537
-0.027145 0.369231 0.188817
0.000961 -0.121496 -0.463817
-0.192352 -0.312389 0.361496
0.038253 -0.388373 0.129569
-0.080053 -0.351297 0.367822
-0.102884 -0.245281 0.398731
-0.043965 -0.338632 0.077682
-0.018169 -0.157882 0.250608
-0.101024 -0.144916 0.401063
0.019981 -0.182659 -0.350252
-0.104621 -0.227620 0.404747
0.182864 -0.199455 0.030572
-0.094219 -0.138950 -0.315560
-0.013283 0.388609 0.176682
-0.107852 -0.221109 0.412814
0.082983 0.262599 0.017021
-0.083452 0.003106 0.068254
0.141136 -0.044285 -0.055770
-0.007628 -0.277008 0.237164
-0.075542 0.106356 -0.453681
-0.018248 0.209316 0.314973
0.040591 -0.005958 -0.492693
0.110017 -0.091672 -0.058014
-0.171054 0.082901 -0.382774
-0.044244 -0.168345 -0.314873
-0.115453 0.177032 0.498624
0.180127 0.194921 -0.021598
-0.144421 0.105519 0.190452
-0.159303 0.244388 0.277673
-0.212118 0.028516 -0.176292
0.057402 0.114368 -0.037765
-0.206910 0.135280 0.345225
0.003924 0.401166 0.259991
-0.207412 -0.154003 0.453500
-0.035481 -0.346856 0.290869
0.173253 -0.268484 0.149910
0.159484 0.007277 -0.208057
0.118349 -0.239938 -0.001213
-0.168228 -0.080037 -0.193650
0.129165 -0.127440 0.149342
-0.006358 0.384580 0.156695
-0.054011 -0.236792 0.298759
-0.145836 0.172587 0.181033
0.070966 0.248457 0.002453
-0.027971 -0.368376 0.121803
0.028284 -0.220661 0.196239
0.219182 -0.180009 0.071732
-0.140185 0.115203 -0.348564
0.099983 0.208950 -0.020063
-0.216733 -0.142445 0.409844
-0.017381 0.174074 0.306163
-0.024576 0.262225 0.065967
-0.036846 -0.387028 0.256119
0.218402 -0.149962 0.055622
0.083939 -0.141300 0.162364
0.130343 0.237266 0.157424
-0.204183 -0.039770 -0.313702
0.087038 0.112893 0.445117
-0.037426 -0.101981 -0.474304
-0.073880 0.070272 0.034245
-0.170897 -0.190060 0.154668
-0.223973 -0.094262 0.334957
-0.036263 0.308985 0.409218
-0.140383 -0.361940 0.340267
0.031808 0.351706 0.084068
0.120696 -0.050312 0.150801
-0.170679 0.249775 0.405401
-0.099140 -0.247950 0.390270
0.062813 0.155736 -0.408579
-0.162722 0.095290 -0.192550
0.030867 -0.122733 -0.462448
-0.125476 -0.026479 -0.471731
-0.127356 -0.102795 -0.142678
0.104383 0.130466 -0.416410
0.087003 0.103681 0.254386
-0.212481 0.025354 0.499341
-0.085270 0.370231 0.372757
0.191641 -0.015223 -0.254464
0.225179 0.133572 0.019859
-0.189668 -0.335821 0.417526
0.116871 -0.079771 -0.450141
-0.216108 -0.286639 0.322982
0.062263 0.162393 -0.275023
-0.209495 -0.283639 0.259447
-0.072195 -0.132784 0.344902
-0.075770 0.056456 -0.016331
-0.087607 0.305184 0.153349
-0.128762 0.291080 0.275579
0.127282 -0.138886 -0.370565
0.161707 0.358377 0.160288
-0.101786 -0.284340 0.397383
-0.169602 -0.347827 0.322224
0.001316 -0.098504 0.277580
-0.161387 0.133604 0.176426
0.147558 -0.074006 -0.422285
0.022603 -0.384866 0.124002
0.012812 0.161515 -0.410992
-0.000676 -0.138107 0.028993
0.042176 -0.011756 0.499356
-0.122070 -0.246246 0.445811
0.197296 0.060944 -0.041251
0.002753 0.092734 -0.471350
-0.001287 -0.166837 -0.410199
-0.161037 -0.299399 0.226215
-0.028685 -0.097132 0.307970
0.193983 -0.064823 -0.016000
-0.149262 0.305105 0.426468
-0.035177 0.110412 0.032971
-0.188270 0.003710 -0.083347
-0.093714 -0.256128 0.072146
0.027054 0.116261 -0.136860
-0.139853 -0.075710 0.499665
0.065361 0.150713 0.196353
0.044217 0.034557 0.499190
0.125332 -0.182441 -0.028175
-0.124328 -0.046941 0.131501
0.002939 -0.216671 0.016765
0.212589 -0.226989 0.114119
0.103379 -0.025335 0.239686
-0.140116 -0.300193 0.452287
-0.184112 -0.306979 0.320067
-0.128392 0.001970 0.146122
-0.198681 -0.246261 0.376756
0.045121 -0.115873 -0.161914
0.188070 -0.066507 -0.022465
-0.112665 0.199250 0.498021
-0.202812 -0.010626 -0.252949
0.056442 0.300594 0.260260
-0.199480 -0.284003 0.427740
0.212990 0.105634 -0.015967
-0.094866 0.000970 -0.487332
0.104167 -0.147471 0.154357
-0.204109 -0.184409 0.468969
0.130057 0.029282 0.146021
0.241287 0.190857 0.102781
0.244533 -0.071469 0.123614
0.197330 0.031913 -0.325161
-0.228946 -0.178304 0.413705
0.229931 -0.171421 0.091932
-0.105644 0.170390 0.462571
-0.014570 -0.154277 -0.270996
-0.086653 0.302281 0.464405
0.058085 0.175967 -0.329472
-0.051820 -0.370901 0.309644
0.106010 0.053297 0.393663
0.213675 0.027551 0.149093
0.087257 0.397504 0.233809
0.132911 -0.065107 0.147418
-0.022017 -0.250209 0.250400
-0.218012 0.124734 0.431016
-0.060992 0.261960 0.087374
0.179268 -0.002083 -0.053215
0.116855 -0.312433 0.039602
-0.000943 0.279356 0.056374
-0.177041 0.185242 0.282164
0.128815 -0.244073 0.007110
-0.130604 -0.354382 0.285148
0.121183 -0.004393 -0.467645
-0.043404 -0.276766 0.054036
-0.108551 -0.127583 -0.233462
0.205400 -0.084879 -0.015120
-0.232371 -0.015782 -0.177509
0.051269 0.014626 0.499251
-0.080970 0.029939 0.050677
-0.222921 -0.017299 0.256610
-0.034769 0.396277 0.232188
-0.112131 -0.133183 -0.342674
-0.083984 -0.210297 0.359343
0.132914 -0.156607 0.150602
0.042166 -0.382030 0.173809
-0.190750 -0.294367 0.264187
-0.208391 -0.248614 0.317894
-0.077501 0.302249 0.462394
0.110226 0.023471 -0.473086
0.038292 0.227097 0.245366
-0.093962 0.005978 0.111947
0.167146 0.328184 0.174128
0.004049 0.249539 0.298645
0.145068 0.381876 0.161562
0.095479 0.205526 -0.013515
0.077984 -0.384680 0.087589
0.079882 -0.072374 0.270746
-0.030900 0.134787 -0.437755
0.067579 0.163110 -0.277040
-0.132800 0.310264 0.366561
0.134639 0.089882 0.141197
-0.089533 0.156565 0.124937
0.092063 -0.034963 0.462828
-0.155600 -0.011678 0.196957
0.105921 0.200272 0.163303
-0.056952 0.143305 0.493408
0.012976 0.189322 0.036753
0.160189 0.357800 0.163245
0.005822 -0.099412 0.271142
-0.195726 0.064523 0.268653
0.147099 -0.046318 -0.201495
0.063843 -0.126978 -0.207037
0.032848 0.168100 -0.242959
-0.160526 -0.085803 -0.242410
0.034337 -0.140359 -0.220084
0.189484 0.016052 0.144600
0.203865 0.291037 0.077984
0.091742 -0.054935 0.230690
0.141551 -0.069612 -0.429638
-0.234830 0.010754 0.361652
-0.085541 0.011488 0.030217
0.055504 0.257042 0.011772
-0.055333 0.042210 0.499165
-0.212027 -0.241153 0.464309
-0.204215 -0.294344 0.329451
-0.174021 -0.046663 -0.238838
-0.046397 -0.131304 -0.207099
0.193306 -0.057790 0.150614
0.103446 -0.024672 0.277142
0.043978 -0.354010 0.060316
-0.141625 0.288544 0.221982
0.174225 0.234265 0.147069
0.099481 -0.024692 -0.479494
-0.211021 -0.245674 0.328878
-0.145929 0.111136 -0.189730
-0.061924 0.110597 0.082475
0.105405 -0.013552 0.323867
0.012858 0.386490 0.154596
-0.043996 -0.186819 0.077984
0.062874 -0.090680 0.259717
0.040785 -0.100381 0.468458
-0.143931 0.069431 -0.079594
0.018086 0.256145 0.284217
0.209803 -0.218789 0.126084
-0.090512 0.306560 0.155224
0.076571 -0.123140 -0.034818
0.038145 0.290467 0.041052
-0.179612 0.024022 -0.235510
-0.070325 0.201355 0.400941
0.174050 0.331741 0.160152
0.076207 0.117302 -0.032214
-0.070116 0.233760 0.414023
0.103531 -0.220804 0.159067
0.038777 -0.355133 0.210264
-0.133277 0.113432 0.173267
0.121594 0.098446 -0.436260
-0.165132 -0.075955 -0.213041
-0.184269 0.186693 0.323897
-0.198082 -0.053272 0.499538
-0.053806 0.049049 -0.487525
-0.125666 0.124437 -0.339471
0.021726 0.148998 0.251101
-0.080366 -0.377813 0.314152
0.053818 -0.043326 0.499601
-0.082502 0.317378 0.455184
-0.141244 -0.021780 0.499402
0.105591 -0.093295 -0.061624
-0.082216 0.055819 0.063470
-0.088001 -0.143027 -0.402046
0.172380 -0.282985 0.137956
0.196757 -0.016707 -0.283792
-0.053742 0.285593 0.417706
-0.193430 -0.286921 0.397170
-0.000487 -0.126178 0.018419
0.228042 -0.171918 0.122074
0.017476 -0.148405 0.017124
-0.152557 -0.340273 0.274839
-0.158043 -0.047152 0.203594
0.075105 0.125991 0.332311
-0.057543 0.303412 0.130521
-0.089433 -0.054908 0.091086
0.184336 0.285827 0.159567
0.240938 0.164369 0.082187
0.167060 0.285338 0.028341
0.062964 -0.079666 0.474581
0.145055 -0.092073 -0.049456
-0.003663 0.161601 -0.278523
0.216848 -0.161620 0.144816
0.167573 -0.198620 0.001647
0.053365 0.108746 -0.082128
-0.178445 0.101030 0.222763
-0.121252 0.016430 0.137811
0.201232 0.068185 0.143728
-0.118329 0.051947 -0.461495
-0.046482 0.171979 0.354015
-0.005603 0.159689 -0.269770
-0.068780 0.151996 -0.279083
-0.212748 0.125566 0.362111
-0.075400 0.226309 0.421165
0.033825 0.082878 -0.480043
0.009303 -0.129248 -0.183086
-0.171637 0.120881 0.200212
-0.213315 -0.120123 0.285669
-0.018721 0.009997 -0.497351
-0.220383 0.051227 0.499323
-0.094604 -0.380674 0.196489
-0.118578 0.131320 -0.345353
-0.086956 0.020604 0.013024
-0.130096 -0.114319 -0.176319
-0.229371 0.019214 0.350949
0.109683 -0.087769 -0.068124
0.192917 0.203008 0.000170
-0.161004 0.219119 0.206949
-0.061341 -0.167252 0.317964
0.146742 0.093260 -0.041850
0.107106 0.046523 0.329896
0.062799 -0.153833 -0.255182
-0.108099 0.306674 0.178270
-0.140792 -0.062308 -0.076793
-0.151995 -0.038568 0.184257
-0.151586 0.298717 0.371649
-0.046051 0.142806 0.477436
-0.206808 -0.265274 0.454776
-0.027642 -0.007547 -0.499522
0.071589 0.134321 0.387231
-0.079162 -0.109161 0.088034
0.161414 0.032419 -0.211256
0.123812 0.136477 -0.255658
-0.168187 0.075418 -0.231252
0.144536 -0.306196 0.056581
0.147068 -0.099557 -0.399213
-0.233584 -0.195754 0.316368
-0.030275 0.165993 -0.397180
0.167512 -0.069313 -0.053077
0.162298 -0.169971 0.150310
-0.186567 0.071590 0.222234
0.113891 0.077856 -0.148797
-0.001553 -0.179480 -0.321692
0.076493 -0.168350 -0.373295
0.025076 -0.098686 0.366908
0.215883 0.206521 0.021440
0.023494 -0.089047 -0.483827
-0.115783 0.167670 0.498652
-0.158793 0.240190 0.259301
0.053662 0.141947 0.436221
0.250989 0.023465 0.112936
0.036589 -0.173889 -0.281241
-0.199556 -0.291855 0.427547
0.007518 0.381896 0.344597
-0.222112 0.027350 0.469510
-0.204383 0.205161 0.341378
-0.132905 0.315223 0.454536
-0.164267 -0.077419 -0.158772
0.206757 0.159748 -0.011947
-0.128525 -0.051925 0.139371
0.090290 -0.157944 -0.369070
0.165094 0.332996 0.073685
-0.196099 0.166347 0.499001
-0.069870 0.248423 0.421611
-0.186060 0.008529 0.499335
-0.164747 -0.351871 0.328628
-0.200587 0.184810 0.477045
-0.007913 0.149271 0.054656
-0.196809 0.204831 0.318465
0.241160 0.079024 0.125058
-0.147012 0.267684 0.432021
0.001520 0.374476 0.129621
-0.212882 -0.133492 0.456868
0.016039 0.257600 0.287366
-0.131453 0.055620 0.152393
-0.075939 -0.381950 0.182824
0.187215 0.114655 0.138971
0.240664 0.007016 0.046367
0.130135 -0.331513 0.066234
0.114158 0.173852 0.155884
0.227725 0.173946 0.057530
-0.163249 0.268701 0.390164
0.173267 -0.087815 -0.047550
-0.158816 -0.033125 0.203173
-0.147448 -0.362607 0.373781
0.192766 0.107868 0.139672
-0.225193 -0.217005 0.253207
-0.178182 0.098120 -0.284239
0.030737 0.362769 0.096236
-0.188592 -0.019416 0.228533
0.221220 0.241404 0.122993
-0.006884 0.121915 0.024053
0.007182 -0.011092 -0.496174
-0.206323 -0.155455 0.477621
-0.180212 0.099476 0.239305
-0.232845 -0.046275 0.455742
0.163492 0.323015 0.063284
-0.087057 -0.001407 0.091435
-0.116204 -0.237787 0.104269
-0.084238 0.004227 0.082007
0.017482 -0.116692 -0.081752
-0.205047 -0.036394 0.499481
-0.160746 -0.208092 0.136198
-0.024795 0.139977 0.386447
0.146200 0.104568 -0.395986
-0.074847 -0.074153 -0.475917
0.198659 0.160938 -0.021211
-0.155158 0.023093 0.200378
-0.134985 0.265260 0.210122
-0.009001 -0.221478 0.020589
0.110569 -0.294025 0.166220
0.226507 -0.122037 0.038566
0.228979 0.011683 0.152385
0.114874 0.370865 0.222136
-0.016711 0.187716 0.307213
-0.038861 -0.169733 0.276352
0.011961 -0.324200 0.046082
0.106558 0.053088 0.179800
0.061230 0.218539 0.212257
-0.215648 -0.129761 0.443942
0.182388 0.154019 -0.021452
-0.079679 -0.194401 0.352312
-0.088533 -0.084752 0.432670
-0.100489 -0.042683 0.499579
0.170013 -0.051279 -0.398677
-0.166097 0.224191 0.494506
-0.010988 0.141954 -0.191079
-0.146493 -0.123006 0.499740
0.087864 -0.170125 0.160035
0.075196 0.383953 0.264170
0.109863 0.152276 -0.303775
0.135250 0.016175 -0.148865
0.049302 0.125804 -0.013781
-0.103497 -0.373577 0.334745
-0.022191 -0.398036 0.173198
0.027861 -0.324047 0.031038
