-0.028578 -0.047866 0.276493 
0.036334 0.033908 0.123823 
-0.084490 -0.311186 0.261045 
0.299584 0.303288 -0.001472 
-0.054442 -0.160449 0.007934 
-0.000928 -0.318884 0.235503 
-0.058919 -0.027424 -0.363117 
-0.427694 -0.385794 0.031664 
-0.254100 -0.181278 0.144836 
-0.010770 -0.169966 -0.020648 
-0.037481 -0.218191 -0.287908 
0.244252 0.196274 0.056077 
-0.111644 -0.270325 0.244246 
-0.157735 -0.078832 0.252528 
0.169447 -0.089129 0.080124 
-0.004517 0.061090 0.039604 
0.054216 -0.170991 0.302393 
-0.445159 -0.371549 0.070594 
0.239029 0.221853 -0.029259 
0.263390 0.207771 0.070889 
-0.132855 -0.243029 0.198464 
-0.184793 -0.099730 0.251694 
-0.077126 -0.350293 0.113224 
0.252511 -0.012056 -0.014743 
-0.100626 -0.292809 0.226727 
0.385841 0.423616 -0.034798 
0.151782 -0.132095 0.118872 
0.083208 0.095444 -0.180860 
0.217692 0.483338 -0.096705 
0.009168 -0.201391 0.331861 
-0.217415 -0.137546 0.171957 
-0.246984 -0.467526 -0.090301 
0.254209 0.085175 0.079717 
-0.129129 -0.128420 0.332264 
0.164269 0.142269 -0.130626 
-0.321634 -0.267811 0.173055 
-0.047457 -0.325019 0.214925 
0.081184 0.144604 -0.124609 
-0.024641 -0.215755 0.068167 
0.259370 0.338757 -0.024979 
0.434069 0.422793 0.023132 
0.104072 -0.100727 -0.172225 
0.120462 0.029161 0.111546 
0.292054 0.045171 -0.058873 
0.382350 0.236000 0.061081 
0.208110 0.122912 -0.115789 
0.094315 -0.119536 0.236721 
-0.120729 -0.244855 0.169237 
0.054615 0.090987 0.018187 
0.236498 0.125157 0.098598 
-0.043645 -0.289059 0.315683 
-0.411527 -0.377021 0.054650 
-0.229944 -0.441734 -0.036994 
0.407372 0.434037 0.041583 
-0.326686 -0.280950 0.184852 
0.301501 0.098119 -0.046679 
-0.298735 -0.462059 -0.087244 
-0.160249 -0.110777 0.147436 
-0.264098 -0.495468 -0.116249 
0.174970 -0.051283 0.080468 
-0.074391 -0.145516 0.011402 
0.067176 0.032746 0.117838 
-0.043677 -0.013365 -0.046767 
-0.254174 -0.461749 -0.002713 
-0.107270 -0.197988 0.343983 
0.108506 -0.183458 0.229767 
-0.093962 -0.001825 -0.375367 
0.191313 -0.053035 -0.160104 
-0.229622 -0.430198 0.020439 
-0.185247 -0.097252 0.162627 
0.050332 -0.157099 -0.237933 
0.089905 -0.206680 0.264949 
0.396873 0.278738 0.019999 
-0.008989 -0.004270 0.179803 
-0.278861 -0.452270 -0.048316 
-0.126060 -0.232801 0.165216 
0.106689 -0.193338 0.160298 
0.275581 0.195407 0.088374 
0.006442 -0.046286 -0.110659 
-0.175414 -0.081464 0.204318 
0.058567 0.033127 -0.173372 
-0.033314 -0.046966 -0.076980 
0.309844 0.345996 -0.084837 
-0.430192 -0.373559 0.011158 
0.000206 0.048844 -0.168345 
0.304450 0.360129 0.026695 
-0.043382 0.040198 0.072501 
0.229429 0.212672 -0.006847 
0.272655 0.317115 -0.039177 
0.067225 0.135947 -0.133102 
-0.072199 -0.004363 -0.433691 
-0.488481 -0.369840 -0.008356 
0.116526 0.173533 -0.038236 
0.316128 0.467643 -0.060666 
0.001411 -0.146770 -0.049337 
0.001803 -0.076233 0.289492 
0.017247 -0.191291 -0.276121 
0.258690 0.444168 -0.035086 
0.013374 -0.035933 -0.118363 
0.110022 -0.050538 0.160317 
0.254519 0.223654 0.029739 
-0.126359 -0.163309 0.137252 
0.020204 -0.139051 -0.059941 
-0.163326 -0.244147 0.271692 
-0.296610 -0.272175 0.187677 
-0.088423 -0.015853 -0.468684 
-0.109295 -0.028217 -0.419205 
0.087463 -0.115523 0.243620 
0.254290 0.475191 -0.056765 
-0.262018 -0.437604 -0.046548 
-0.273997 -0.443818 -0.036063 
-0.152874 -0.338997 0.054917 
0.165797 -0.074575 -0.165174 
-0.270573 -0.220824 0.126538 
0.084890 -0.117103 -0.180172 
-0.025228 -0.004589 0.179587 
0.111160 -0.115345 -0.054807 
0.058943 -0.212146 0.038658 
0.289522 0.448897 0.013481 
-0.081588 -0.033149 -0.412068 
-0.263661 -0.479496 -0.058306 
0.306465 0.104690 -0.039088 
0.072354 -0.213421 0.046961 
0.207660 -0.056495 -0.004310 
-0.063973 0.013919 0.014515 
0.247837 0.394493 -0.029706 
-0.094466 -0.295290 0.257070 
0.248253 0.220822 -0.050078 
-0.055742 0.004239 -0.014387 
0.230124 0.176846 -0.089246 
-0.084207 -0.034140 0.229873 
-0.000927 -0.201007 0.022446 
0.388848 0.248891 0.056480 
0.288864 0.256515 0.068126 
0.042202 -0.114582 -0.080767 
0.269115 0.230625 0.058410 
0.318139 0.269465 0.089595 
0.196065 0.178327 -0.009319 
-0.028722 -0.314690 0.124675 
0.046016 -0.018868 -0.144666 
-0.129451 -0.057403 0.218173 
-0.421584 -0.332624 0.063528 
0.223718 0.112055 0.097775 
0.152402 -0.088097 -0.045244 
-0.048179 0.031978 0.023783 
0.251251 0.210844 0.048521 
-0.302209 -0.254501 0.159614 
0.088112 -0.131104 -0.231966 
0.252628 0.370497 -0.022994 
-0.114966 -0.133569 0.120532 
-0.118769 -0.365964 0.093230 
0.354219 0.428144 0.052199 
0.153987 0.182394 -0.027091 
0.076798 -0.238394 0.265180 
-0.483610 -0.397680 -0.006872 
0.298534 0.475758 -0.077956 
-0.089485 -0.359571 0.091778 
-0.157494 -0.390802 0.029434 
0.034749 -0.196873 0.006105 
0.076861 0.145071 -0.043898 
-0.111283 -0.053319 0.186804 
0.023563 0.105122 -0.130796 
0.104176 -0.001650 -0.177887 
0.064130 -0.120252 -0.183529 
-0.033880 -0.065026 -0.075914 
-0.189196 -0.178609 0.290771 
0.277300 0.489146 -0.062820 
0.029136 -0.239004 0.317098 
-0.001362 -0.166768 -0.294849 
0.350489 0.178819 0.010952 
-0.041303 -0.197617 -0.305004 
-0.215833 -0.123423 0.183471 
0.161883 -0.060973 0.104970 
0.245930 -0.010323 0.007390 
0.024188 -0.107816 0.295730 
-0.105195 -0.044407 0.146221 
0.181852 -0.056225 0.063452 
-0.094236 -0.301403 0.239997 
-0.331572 -0.272295 0.114487 
-0.044312 -0.314162 0.086639 
-0.097842 -0.319699 0.162326 
-0.071151 -0.230113 -0.366533 
0.231990 0.194898 0.019101 
0.366914 0.203891 0.043545 
-0.004969 -0.194142 -0.262319 
-0.085460 -0.115676 0.335495 
0.247889 -0.021489 -0.034024 
0.300523 0.306973 0.051449 
0.047823 0.122406 -0.147508 
0.112002 -0.046100 -0.191523 
0.040110 0.076335 0.048816 
-0.171137 -0.220563 0.225649 
0.405365 0.327294 0.027032 
-0.092112 -0.160800 0.089844 
0.087256 -0.003386 -0.171796 
0.239711 -0.034831 -0.087481 
-0.113518 -0.068752 0.288280 
-0.056400 -0.337363 0.089023 
0.185587 0.042156 0.101618 
-0.111531 -0.274279 0.223035 
0.288068 0.277795 -0.002722 
-0.046611 -0.214088 -0.323727 
-0.072129 -0.332659 0.210863 
-0.223667 -0.148078 0.171036 
0.368974 0.289525 0.099706 
-0.038895 -0.284671 0.319245 
0.321579 0.398264 0.067698 
0.204388 -0.053756 -0.141395 
0.428260 0.415048 0.027726 
-0.232512 -0.205628 0.245336 
0.337947 0.155067 -0.020302 
-0.133385 -0.060751 0.196780 
-0.073505 0.010196 0.117825 
-0.060421 -0.308813 0.073015 
0.232523 0.217925 -0.027536 
0.071361 -0.255175 0.231212 
0.298403 0.130771 -0.068542 
-0.155136 -0.390675 0.083111 
0.273750 0.054416 -0.111806 
-0.070495 -0.169301 0.046046 
0.040106 -0.282984 0.164870 
-0.058592 -0.047385 -0.048167 
0.303389 0.320037 0.026064 
-0.270706 -0.443513 -0.087409 
0.283301 0.307992 -0.025334 
0.111253 0.105628 -0.169950 
0.030539 -0.157704 -0.044246 
-0.004490 -0.314614 0.255774 
0.197712 0.111469 -0.125995 
-0.047058 -0.182528 0.031421 
-0.055555 -0.338996 0.165015 
0.165584 0.042199 -0.176486 
0.343501 0.163166 0.000985 
0.281484 0.235254 0.072341 
0.398861 0.402523 0.041564 
0.067621 0.107942 0.008601 
-0.073530 -0.001590 0.144473 
-0.206263 -0.240275 0.239394 
0.072385 -0.244380 0.266807 
0.343877 0.355424 0.082463 
0.289051 0.121250 0.074466 
-0.020258 0.035021 -0.213257 
0.094649 0.142224 -0.139655 
0.247516 0.010553 -0.137841 
-0.108844 -0.045275 0.134626 
-0.055177 0.019235 -0.309747 
-0.050754 0.009082 -0.015030 
0.169421 0.064712 -0.164031 
-0.128097 -0.243434 0.286506 
-0.108028 -0.280312 0.223542 
-0.048702 -0.252669 -0.367815 
-0.020372 -0.005638 -0.283371 
0.003532 -0.178319 -0.307557 
-0.031002 -0.240444 0.338976 
-0.439073 -0.384329 -0.013220 
-0.040670 0.032582 -0.249459 
-0.085690 0.004953 -0.456374 
0.393468 0.295452 0.080567 
-0.090362 -0.354979 0.073382 
0.319868 0.309996 0.078414 
0.268310 0.417092 -0.100579 
0.004220 -0.207165 -0.306085 
-0.202381 -0.429618 0.029487 
0.021545 -0.274195 0.116243 
0.036244 -0.065732 -0.121170 
0.284587 0.391679 -0.095170 
0.061732 -0.096843 -0.120982 
0.328871 0.346398 -0.088656 
0.357804 0.430819 -0.062356 
0.164310 0.134354 -0.133818 
-0.074989 -0.014992 -0.472222 
0.318503 0.186783 -0.053625 
0.178243 0.176891 -0.007867 
0.024684 -0.193324 0.001546 
0.312791 0.466288 -0.069549 
0.056687 -0.238296 0.144786 
0.101343 -0.037025 0.157411 
0.133281 -0.141117 0.154898 
0.020427 0.098201 -0.101234 
-0.030471 -0.039621 0.266965 
0.344567 0.375200 -0.092065 
0.244614 0.221217 -0.035232 
-0.140744 -0.239845 0.220330 
0.278590 0.089141 0.041235 
0.403015 0.322631 0.018526 
0.279963 0.487158 -0.115717 
0.403198 0.328554 0.059005 
0.192196 0.167102 0.014591 
0.125875 -0.185103 0.064302 
-0.114369 -0.058792 0.178060 
0.392837 0.269380 0.069283 
-0.117312 -0.333404 0.136037 
0.285349 0.471122 -0.113609 
0.017147 0.043595 -0.051150 
-0.157600 -0.133253 0.318135 
-0.103253 -0.334541 0.137600 
-0.020963 0.045534 -0.253937 
0.023979 0.099414 -0.091643 
0.006070 -0.276369 0.310200 
0.135648 0.045446 0.107390 
0.341345 0.278012 0.099398 
-0.182200 -0.100167 0.259122 
0.013160 0.023662 -0.151822 
0.271620 0.218523 0.072323 
0.360046 0.421921 -0.065289 
0.042351 -0.112151 -0.251899 
0.004407 0.037568 -0.150582 
-0.001350 -0.020179 -0.100285 
0.095271 0.020544 -0.178093 
0.264811 0.028517 0.013292 
0.274976 0.084821 0.043647 
-0.130743 -0.339262 0.125568 
0.168066 -0.107708 0.027340 
-0.089333 -0.165028 0.348795 
-0.250107 -0.203202 0.222495 
-0.029766 -0.242778 0.084720 
-0.012740 -0.295948 0.296804 
0.150400 0.048625 -0.176538 
-0.119135 -0.098349 0.101757 
-0.000111 -0.044295 -0.107018 
0.201825 0.160730 0.028891 
0.208764 0.018914 0.078666 
-0.288578 -0.237814 0.125014 
0.096515 -0.098989 -0.073680 
-0.070225 0.007748 -0.370991 
0.017197 0.021752 -0.165229 
0.193326 0.152251 0.043133 
0.054718 0.102471 -0.014389 
0.042357 -0.286078 0.219304 
0.052943 -0.272350 0.263369 
0.048438 -0.279513 0.220777 
-0.173514 -0.244821 0.261142 
0.234489 0.451818 -0.079064 
-0.112564 -0.169632 0.348194 
-0.261224 -0.177247 0.161636 
0.112200 -0.077537 -0.214646 
-0.071087 -0.029506 0.208378 
-0.053142 -0.034467 -0.049673 
0.143597 -0.078742 -0.184167 
-0.375866 -0.310869 0.084735 
0.304807 0.114814 0.007370 
0.156363 -0.078425 -0.057985 
-0.299778 -0.298900 0.146458 
-0.033833 0.043614 0.028567 
-0.266212 -0.227581 0.200121 
0.294228 0.292697 0.012040 
0.104312 -0.182289 0.009866 
0.090110 -0.103279 -0.153674 
0.187414 -0.054070 0.053159 
0.052703 -0.094194 -0.201616 
0.390081 0.333061 -0.004457 
-0.028563 -0.309449 0.280224 
0.289814 0.036835 -0.050787 
0.095030 -0.213872 0.249648 
0.126656 -0.038366 0.138462 
-0.118793 -0.258734 0.182737 
-0.087665 -0.028413 -0.386461 
0.404005 0.306330 0.052482 
0.234354 0.118080 0.099249 
0.119097 -0.170243 0.168879 
0.016439 -0.185037 -0.010747 
0.097926 -0.200929 0.039667 
0.020280 -0.198029 0.326479 
0.000427 0.048780 -0.022273 
0.335898 0.209217 -0.040297 
0.401016 0.352703 0.063244 
0.012717 0.010799 -0.221592 
-0.033012 -0.235323 -0.336290 
-0.206228 -0.192212 0.160987 
0.400042 0.296136 0.018648 
0.240526 0.202700 0.033630 
0.055761 0.072651 0.066783 
-0.113792 -0.113226 0.090389 
0.047575 -0.276334 0.173802 
-0.006505 0.000253 -0.070358 
-0.306884 -0.230603 0.142031 
-0.318952 -0.260734 0.149433 
0.030158 -0.298582 0.246384 
0.342440 0.161833 -0.015362 
0.359423 0.306644 -0.028748 
0.094611 -0.207277 0.150816 
0.294392 0.131908 0.084513 
-0.102612 -0.102914 0.326210 
-0.198392 -0.201186 0.287461 
0.170436 -0.042216 0.090153 
0.120587 -0.093193 -0.194324 
0.373269 0.375939 -0.054928 
0.246790 0.419407 -0.085379 
0.221654 0.152367 -0.100094 
0.317655 0.322225 0.072449 
0.041980 -0.224540 0.085711 
0.215453 0.465377 -0.127449 
-0.038547 -0.283095 0.089374 
0.314727 0.247731 0.094923 
0.215036 0.470838 -0.108137 
-0.204008 -0.430540 -0.006892 
0.038163 -0.134870 -0.204358 
0.064621 0.124726 -0.022795 
0.233704 0.159603 -0.094029 
-0.273597 -0.440764 -0.104848 
0.346853 0.322686 -0.051631 
-0.238778 -0.168627 0.222000 
-0.093490 -0.227488 0.144189 
-0.219297 -0.239409 0.224989 
-0.365967 -0.291137 0.105184 
-0.310768 -0.292970 0.185133 
0.164411 -0.109673 0.085902 
-0.120467 -0.260806 0.207236 
0.330037 0.326172 -0.063628 
0.243542 0.497156 -0.078106 
-0.434475 -0.355463 0.072110 
0.086820 -0.045962 -0.171897 
-0.073202 -0.014922 -0.461451 
-0.041684 0.017252 -0.235161 
0.319048 0.407567 -0.098384 
-0.026465 -0.301727 0.298723 
-0.249379 -0.467154 -0.109255 
0.051229 0.079822 0.048654 
-0.305442 -0.251273 0.123219 
0.269296 0.421880 -0.104224 
0.276285 0.214375 0.078872 
0.268160 0.135850 0.101711 
-0.090141 -0.056395 0.281851 
0.238694 0.056288 -0.140725 
-0.028854 0.042175 -0.248737 
-0.044400 -0.197408 -0.379832 
0.173267 0.181147 -0.026492 
0.388670 0.244563 0.041170 
0.050646 -0.048858 0.217635 
0.018309 0.017123 -0.182883 
0.129853 -0.089698 0.161433 
-0.075280 -0.211653 0.346087 
-0.013453 0.018684 -0.195893 
-0.409943 -0.368077 0.077617 
0.285110 0.085055 -0.079485 
-0.111905 -0.219843 0.331619 
-0.079506 -0.284222 0.094809 
0.358304 0.197201 -0.004242 
0.322808 0.459360 -0.009509 
-0.014407 -0.022793 -0.086323 
0.193232 0.075064 -0.151266 
0.157834 -0.135300 0.059721 
0.288832 0.287726 -0.049608 
0.290572 0.038970 -0.058263 
0.118990 -0.155452 0.180394 
0.118264 -0.122654 0.186485 
0.147560 -0.157061 0.098552 
-0.354222 -0.296291 0.153438 
0.070211 0.060626 0.084935 
0.152818 -0.122065 0.121211 
0.161157 -0.006074 0.101753 
0.040965 -0.116688 -0.255801 
0.240282 -0.010350 -0.130158 
-0.347867 -0.312841 0.150139 
0.030362 -0.193614 0.320680 
-0.135554 -0.121035 0.135398 
-0.105336 -0.272557 0.270667 
0.182959 -0.048275 0.065856 
0.290537 0.058625 -0.074271 
-0.077997 -0.000605 -0.463801 
-0.171245 -0.196105 0.317040 
0.105696 -0.198945 0.196499 
0.155400 -0.083276 -0.081320 
0.037361 -0.081028 -0.114883 
0.095393 -0.211422 0.076147 
0.360662 0.357731 -0.069038 
0.078052 -0.058788 -0.173648 
-0.035505 0.009505 0.157171 
0.106987 0.041290 0.104020 
0.105637 -0.147613 -0.032028 
-0.127342 -0.204241 0.337951 
-0.123389 -0.247116 0.176593 
-0.055689 -0.225518 -0.386431 
-0.198855 -0.105441 0.225814 
-0.407272 -0.363511 0.042703 
-0.183434 -0.085063 0.191958 
-0.013443 -0.227723 -0.315554 
-0.073369 -0.007030 -0.311658 
-0.014483 0.053856 0.073196 
-0.032795 -0.008519 -0.301405 
0.351568 0.450833 -0.054289 
0.201516 0.190042 -0.047084 
0.027942 0.114368 -0.122932 
0.245091 -0.025839 -0.042544 
0.059144 -0.001919 0.158142 
0.304853 0.461294 -0.090687 
0.246033 0.220432 0.011747 
0.082422 0.121476 -0.153005 
-0.112010 -0.308140 0.135453 
0.094344 0.094871 0.058269 
-0.124693 -0.239030 0.302097 
-0.085235 -0.031169 0.173148 
0.333286 0.248567 -0.038780 
0.378714 0.423762 0.048605 
0.004320 0.059955 0.001467 
0.191737 0.138888 0.060666 
-0.032028 -0.149565 0.337492 
0.269487 0.235437 -0.056218 
0.177786 0.159897 -0.109063 
-0.007680 -0.157785 -0.035144 
0.360908 0.205652 -0.004947 
-0.052585 -0.195945 0.347130 
0.256839 0.080485 0.072844 
0.294330 0.061064 -0.044308 
-0.181641 -0.152961 0.302784 
-0.404045 -0.331728 0.098553 
-0.249536 -0.445297 -0.057289 
0.147912 -0.083817 -0.094048 
0.021595 0.072210 -0.074955 
0.372528 0.363888 -0.050851 
0.253639 -0.014499 -0.030377 
0.276588 0.438763 -0.117045 
-0.092199 -0.162353 0.095998 
0.242067 0.426332 -0.083627 
0.166123 -0.080998 -0.074253 
-0.068341 -0.264183 0.326596 
0.113528 0.073042 -0.176613 
-0.052704 -0.333084 0.120943 
0.108169 0.152789 0.002402 
0.258864 0.417979 -0.098171 
-0.175256 -0.389980 0.019801 
-0.149253 -0.344661 0.104906 
-0.238850 -0.234862 0.164114 
0.178366 -0.087361 0.021139 
0.034054 -0.160290 -0.279315 
-0.083101 -0.102935 0.328958 
0.075822 -0.159790 0.282016 
-0.004752 -0.176121 -0.260572 
-0.065078 -0.345790 0.103590 
-0.100475 -0.302710 0.113385 
0.031430 -0.253280 0.310599 
-0.100427 -0.060599 0.016220 
0.264328 0.180161 0.088525 
-0.255358 -0.211379 0.212522 
-0.021997 -0.302167 0.291754 
0.300844 0.312303 0.028476 
0.283722 0.198345 0.095011 
0.049686 -0.003435 0.164378 
-0.063343 -0.221456 -0.351937 
-0.004001 0.051669 -0.235473 
-0.080426 -0.000462 0.023515 
0.264158 0.367860 -0.005278 
0.025739 -0.241712 0.100921 
-0.453964 -0.406202 -0.015876 
0.320650 0.243960 0.100038 
-0.032501 -0.295110 0.310394 
-0.041792 -0.197237 0.053257 
0.259325 0.185937 0.080740 
-0.103580 -0.339199 0.055861 
-0.038670 -0.312952 0.285980 
-0.277296 -0.189524 0.158442 
0.332288 0.185986 0.101045 
-0.212412 -0.442885 0.003349 
0.164727 0.179243 -0.081964 
0.134230 -0.041344 0.133386 
0.197972 -0.069498 -0.072565 
0.003608 0.018788 -0.062426 
0.121867 -0.034710 0.139806 
0.286567 0.035497 -0.033170 
-0.099248 -0.302493 0.134961 
0.019289 0.007538 0.161810 
0.190655 -0.076804 -0.101598 
0.166763 0.159729 -0.114891 
-0.064959 -0.073960 0.307301 
0.229962 0.446977 -0.095451 
0.409325 0.424238 0.030365 
0.206835 0.113591 -0.121091 
0.135947 -0.068755 -0.196868 
-0.052143 0.008369 -0.255491 
-0.179050 -0.095872 0.254567 
0.107002 0.006039 0.126327 
-0.147883 -0.121124 0.318743 
-0.284213 -0.197501 0.150391 
0.046654 -0.266485 0.286179 
0.079416 0.042061 0.103956 
-0.241563 -0.172297 0.149990 
-0.122491 -0.358436 0.047349 
0.276301 0.460413 -0.128784 
-0.308365 -0.273531 0.119154 
-0.035181 -0.149537 -0.024826 
0.365644 0.204442 0.015006 
-0.159427 -0.207240 0.159622 
-0.112647 -0.361457 0.100535 
-0.074277 -0.279938 0.093395 
0.033589 -0.200069 0.012335 
0.252715 0.396513 -0.020113 
0.330168 0.174369 -0.044662 
-0.093461 -0.310141 0.219808 
0.253469 0.356936 -0.050327 
0.006964 0.037929 -0.143333 
-0.027764 0.000286 -0.316562 
-0.083190 -0.062230 0.291809 
0.099360 0.033018 0.110241 
0.215685 0.190143 -0.000822 
0.057763 -0.121366 -0.071432 
0.247210 0.409411 -0.074753 
-0.079660 -0.180378 0.101661 
-0.056697 -0.250301 -0.367791 
0.177810 -0.067940 -0.156854 
0.016594 -0.144398 -0.237407 
-0.013081 0.053423 0.014067 
-0.023783 -0.316168 0.132046 
-0.085979 0.007129 -0.445186 
-0.185863 -0.392251 0.016509 
0.231363 0.021399 -0.151440 
-0.063316 -0.167763 0.030671 
-0.121616 -0.052720 0.221086 
-0.194327 -0.094701 0.193804 
-0.297830 -0.216079 0.154495 
0.130807 -0.079491 -0.103155 
0.114964 -0.125509 -0.044937 
0.070325 0.007546 -0.167500 
-0.045794 0.007560 -0.244260 
0.282678 0.215693 0.083022 
-0.105898 -0.024483 0.067230 
-0.083209 -0.224855 0.138192 
-0.100488 -0.287323 0.247661 
0.026208 0.034201 0.124474 
0.054508 0.048645 -0.186179 
0.292381 0.138012 0.095377 
-0.110556 -0.278019 0.210112 
0.089124 -0.228498 0.203208 
0.374424 0.339880 -0.027524 
-0.055211 -0.282161 0.318814 
-0.011090 -0.293140 0.110280 
-0.267092 -0.437226 -0.035778 
0.063426 -0.149631 -0.230147 
0.323322 0.266661 -0.046998 
0.081918 0.144365 -0.026229 
0.236960 0.091454 0.096588 
-0.040747 0.042478 0.061400 
0.127805 -0.131101 -0.028036 
0.114465 -0.195892 0.134691 
-0.089241 -0.292523 0.095530 
0.303821 0.475753 -0.065337 
0.001542 -0.005677 -0.086639 
0.148881 -0.077155 -0.180545 
0.006601 0.058397 0.079973 
0.143058 0.175594 -0.011352 
-0.018871 -0.270470 0.326320 
0.253881 0.155777 0.096714 
0.316138 0.243290 -0.050270 
0.224297 -0.043102 -0.013646 
0.181932 -0.002725 0.087547 
0.151236 -0.116023 -0.011586 
-0.116334 -0.112910 0.105013 
0.028357 0.031558 -0.229814 
-0.075790 -0.148646 0.017043 
0.208244 0.025262 0.082248 
0.018924 -0.207084 0.030095 
0.179413 0.161168 0.031084 
-0.048051 -0.274360 0.325020 
-0.214887 -0.175708 0.142680 
-0.107629 0.005935 -0.441186 
0.252483 0.195186 -0.079346 
0.283568 0.073158 0.008262 
0.076517 -0.129570 -0.202460 
0.031787 -0.024312 -0.133124 
0.121231 0.160843 -0.128125 
-0.155439 -0.149454 0.324686 
0.274504 0.250007 0.041360 
0.244236 0.399593 -0.045314 
-0.023710 -0.239427 -0.380754 
0.299105 0.320546 -0.069145 
-0.147192 -0.211212 0.326695 
-0.098008 -0.012914 -0.395160 
0.378884 0.391661 -0.048013 
-0.020353 -0.033690 0.255252 
-0.079764 -0.266414 0.147267 
0.120898 -0.101446 -0.059356 
-0.091631 -0.177731 0.349335 
0.368498 0.419320 -0.055158 
-0.135708 -0.086724 0.297459 
-0.114856 -0.101094 0.321451 
-0.042710 -0.320908 0.239981 
0.057744 -0.162914 -0.036261 
0.198470 -0.005401 -0.160937 
-0.019629 0.053230 0.035367 
-0.123815 -0.159290 0.344551 
0.188399 -0.070105 -0.007138 
0.255180 0.439092 -0.042472 
0.222216 0.135049 -0.105631 
-0.078242 -0.018013 0.164699 
-0.055276 0.033241 0.065770 
-0.098145 -0.001752 -0.469787 
0.044825 0.054970 -0.205957 
0.032321 -0.293743 0.185608 
-0.309176 -0.261883 0.171228 
0.138418 -0.082200 -0.112482 
-0.124579 -0.254083 0.234012 
-0.244668 -0.190880 0.134746 
-0.047552 -0.327010 0.093040 
0.426886 0.428940 0.020363 
0.148152 0.079493 -0.162696 
-0.072830 -0.038109 0.262079 
-0.276964 -0.452137 -0.129494 
0.021722 -0.204189 0.022841 
-0.464256 -0.372639 -0.053494 
-0.163649 -0.081356 0.234571 
-0.112363 -0.100738 0.060741 
-0.039986 -0.031765 0.256703 
-0.233439 -0.228750 0.230043 
-0.068065 -0.269457 0.323531 
0.175700 0.146765 -0.121742 
0.146443 -0.108989 -0.029214 
-0.339857 -0.314130 0.151613 
-0.206677 -0.408098 0.044731 
0.257334 0.349958 -0.021513 
-0.001491 -0.321393 0.207497 
-0.298442 -0.229582 0.160245 
0.290449 0.096616 0.022162 
0.078261 -0.243576 0.252814 
0.274150 0.432244 -0.112821 
-0.006242 -0.133448 0.323525 
0.128250 -0.135216 -0.022742 
0.406016 0.316984 0.041488 
-0.104634 -0.107548 0.039841 
0.391091 0.305315 0.085915 
-0.278931 -0.472177 -0.070068 
0.188680 -0.072390 -0.065518 
0.376500 0.354740 -0.034829 
-0.003548 0.046061 -0.203058 
0.306299 0.134187 -0.060810 
0.344921 0.359733 -0.089352 
-0.413083 -0.365812 0.032872 
-0.095850 -0.299383 0.117176 
-0.404360 -0.344663 0.048740 
-0.055695 -0.029240 0.250044 
0.050018 -0.280274 0.234979 
0.372655 0.297358 0.097790 
0.101492 0.146625 0.004120 
-0.019637 -0.218855 0.069752 
0.036335 -0.266054 0.124761 
0.279597 0.452757 -0.125146 
0.387367 0.354295 0.077788 
-0.033971 -0.194398 -0.294209 
-0.197654 -0.182595 0.175729 
-0.159148 -0.245840 0.267345 
0.196349 0.185072 -0.055799 
0.045996 -0.227327 0.108836 
0.012569 0.017184 0.150344 
0.271399 0.032512 0.005794 
0.000713 -0.195168 0.010802 
0.306069 0.101679 -0.031071 
0.009561 -0.141823 0.318728 
-0.230374 -0.225024 0.171251 
-0.121050 -0.259782 0.217967 
-0.033685 -0.190608 -0.304410 
0.391617 0.410140 0.045682 
-0.129175 -0.092762 0.133243 
-0.155597 -0.221550 0.189836 
-0.452821 -0.400703 -0.006263 
0.011233 -0.161547 -0.242463 
0.023905 -0.181064 0.322598 
0.128499 0.105007 -0.162762 
-0.261732 -0.449261 -0.007703 
-0.101621 -0.115820 0.038368 
-0.089069 -0.034380 0.002535 
-0.238964 -0.151170 0.198723 
-0.072279 0.019421 0.064677 
0.088695 0.101603 0.046700 
0.386344 0.288530 -0.001072 
0.307072 0.118253 0.015128 
-0.359806 -0.302752 0.095256 
0.353623 0.225041 0.104489 
0.328867 0.306395 -0.051272 
-0.160509 -0.365647 0.104916 
-0.091775 -0.294277 0.089679 
0.368079 0.381513 0.073374 
0.305179 0.335841 0.017988 
-0.110472 -0.282016 0.185445 
0.017329 -0.000599 -0.106932 
-0.470324 -0.355391 -0.043089 
-0.265597 -0.487785 -0.119913 
0.098665 -0.123496 0.232019 
0.284452 0.058387 -0.092001 
0.329473 0.307737 0.086322 
-0.156059 -0.361142 0.107640 
0.022033 -0.168746 -0.290546 
0.052336 -0.146447 -0.051966 
-0.086188 -0.237768 0.143336 
-0.278167 -0.196532 0.180072 
0.321540 0.320199 0.076877 
0.125830 0.130012 -0.153963 
-0.249259 -0.478822 -0.100602 
0.179494 0.034268 0.102241 
-0.040106 -0.227413 -0.324928 
-0.084312 -0.124363 0.339286 
0.209588 0.163534 -0.097040 
0.224737 0.090919 0.098892 
0.152385 -0.146306 0.096824 
0.089316 0.140490 -0.002016 
-0.102404 -0.323290 0.151390 
0.371170 0.411551 -0.055460 
-0.108423 -0.312250 0.120084 
0.008748 -0.037432 0.242093 
0.113305 -0.163692 0.211249 
-0.450550 -0.367716 -0.040000 
-0.051183 -0.004607 -0.368846 
-0.052406 -0.335099 0.111248 
0.020984 -0.068769 0.270077 
-0.228067 -0.180959 0.139414 
-0.008911 0.005869 -0.217978 
0.037517 -0.217039 0.055006 
-0.031817 -0.202820 -0.368965 
-0.089785 -0.224096 0.336727 
-0.443402 -0.385108 0.062501 
0.321663 0.126551 -0.017116 
0.143341 -0.092905 0.142398 
0.224872 0.471746 -0.089568 
-0.078288 0.007217 -0.383427 
-0.041066 -0.020299 0.202023 
-0.076548 -0.077441 0.309570 
0.104596 -0.085642 -0.083442 
-0.138355 -0.201941 0.335602 
-0.457325 -0.390733 0.009700 
0.399491 0.286743 0.060630 
0.154041 -0.065323 -0.185871 
-0.192995 -0.223069 0.282745 
0.343146 0.460182 -0.024622 
-0.071720 -0.122277 0.338020 
-0.028396 -0.022421 0.232449 
0.275920 0.448831 -0.009288 
-0.101473 -0.029175 -0.417572 
-0.109107 -0.071984 0.036855 
0.095869 -0.075605 0.194627 
-0.095429 -0.077951 0.006006 
-0.198125 -0.389747 0.040541 
0.047644 0.031629 0.124213 
0.322124 0.130388 -0.030222 
-0.249014 -0.190225 0.222474 
0.275199 0.379088 -0.084172 
0.154308 -0.136255 0.105595 
-0.159030 -0.345680 0.051647 
0.305492 0.294504 0.068954 
0.086565 -0.133893 -0.052833 
-0.008473 0.048915 -0.009917 
-0.094385 -0.031122 0.015914 
0.032584 -0.246212 0.110603 
0.053395 0.107003 -0.024635 
-0.007063 0.029315 0.132928 
0.150850 0.157846 0.025670 
-0.121584 -0.255407 0.188671 
-0.015735 0.006478 -0.217396 
0.223532 0.179216 0.035999 
0.095514 -0.146586 -0.039218 
0.017485 0.061048 -0.228134 
0.357123 0.329968 0.091894 
0.102899 -0.202334 0.237560 
0.235599 0.200163 0.018793 
-0.426399 -0.388223 0.040397 
-0.080527 -0.328998 0.208755 
-0.152194 -0.397520 0.056669 
0.094549 -0.045250 -0.183774 
0.180945 0.179636 -0.067991 
-0.055520 -0.170921 0.023777 
-0.099855 -0.019551 -0.408721 
-0.077744 -0.175646 0.077030 
-0.154021 -0.167491 0.330451 
0.017404 0.071118 -0.087720 
-0.169943 -0.076944 0.185177 
0.265741 0.001356 -0.029118 
-0.232352 -0.239107 0.210751 
0.102581 -0.159459 -0.021965 
-0.195100 -0.146697 0.151671 
-0.223390 -0.126160 0.212769 
0.135061 0.020468 0.110755 
0.070954 -0.099495 -0.088418 
0.019224 -0.304717 0.204213 
0.098417 -0.058700 0.177463 
0.192271 0.184583 -0.026749 
-0.358325 -0.278551 0.117392 
-0.367027 -0.288097 0.133945 
0.017704 0.046318 -0.118527 
-0.166823 -0.079713 0.165799 
-0.106829 -0.132008 0.090369 
0.129357 0.174545 -0.105552 
-0.090736 -0.346619 0.124729 
0.339429 0.248415 0.104983 
-0.080948 -0.167387 0.060542 
0.172127 -0.100536 0.031251 
-0.392543 -0.313279 0.089960 
0.206797 -0.024672 0.049251 
0.001155 0.052076 -0.016312 
0.164104 -0.069149 -0.174590 
-0.131037 -0.247316 0.222864 
-0.255492 -0.184778 0.197279 
0.127264 -0.077566 -0.089064 
0.114892 0.126026 0.048479 
-0.349851 -0.280079 0.143621 
-0.363561 -0.306677 0.091927 
0.200186 0.083792 -0.142882 
0.054230 0.001879 0.156179 
-0.243811 -0.226113 0.217918 
0.249844 0.386894 -0.025982 
0.090191 -0.168166 0.268798 
0.290690 0.267783 -0.049567 
-0.042180 0.023915 -0.006150 
-0.006817 -0.278296 0.100967 
0.362156 0.442061 0.018723 
-0.070796 -0.029095 0.223965 
0.338551 0.431483 0.047393 
-0.476337 -0.368310 -0.048253 
-0.377631 -0.305741 0.131792 
-0.250917 -0.246357 0.143956 
-0.008080 -0.216401 0.062771 
0.341291 0.318508 -0.051875 
0.011412 -0.116929 0.307780 
-0.450425 -0.364872 0.065205 
0.018241 0.084521 -0.091906 
0.073248 0.073094 0.073144 
0.039628 -0.257351 0.302568 
0.151765 -0.085903 -0.147896 
0.352336 0.180931 -0.003385 
-0.178017 -0.365896 0.048624 
-0.123858 -0.350330 0.046833 
0.010246 -0.191178 0.330620 
-0.098862 -0.013643 0.060333 
-0.051558 -0.049183 0.281249 
-0.020177 -0.237736 -0.373988 
0.035603 -0.282924 0.279467 
0.117286 -0.147287 -0.022023 
0.255426 0.126893 0.101120 
-0.042547 -0.067580 -0.067027 
-0.098743 -0.138597 0.060487 
0.129953 -0.174172 0.040914 
0.083642 -0.192491 0.007762 
-0.105975 -0.024987 0.107822 
0.108038 0.173139 -0.087789 
0.296476 0.480176 -0.071768 
0.095571 -0.081595 -0.223415 
-0.253596 -0.481821 -0.031641 
0.098730 0.054936 -0.179290 
0.026774 -0.142201 -0.057771 
-0.110099 -0.049283 0.044799 
0.351168 0.336034 -0.071977 
0.281265 0.069424 0.013104 
0.374034 0.216473 0.047520 
-0.011569 -0.178717 -0.009502 
-0.158638 -0.086260 0.274172 
0.329472 0.451374 -0.069684 
0.327009 0.172561 0.095432 
0.260118 -0.011349 -0.061037 
0.028058 0.053587 -0.062360 
-0.142582 -0.119306 0.320869 
-0.067192 -0.013861 -0.312985 
0.252370 -0.001554 -0.124940 
-0.089925 -0.009595 0.032321 
-0.018569 0.001659 -0.300526 
0.016783 0.003947 -0.095984 
0.375950 0.252170 -0.003161 
0.006722 0.055764 -0.187315 
0.088525 -0.175129 0.272023 
-0.048870 0.035087 0.086273 
0.340797 0.452828 -0.001229 
0.070334 -0.211700 0.040361 
0.233495 -0.039395 -0.042886 
0.290267 0.051403 -0.026922 
-0.099085 -0.028686 0.030069 
-0.017405 -0.245899 0.335831 
-0.040638 -0.261976 0.096542 
-0.076857 -0.162281 0.038597 
0.059850 -0.132958 -0.061511 
0.377565 0.231553 0.010947 
-0.015196 0.038394 0.115496 
0.079086 0.001015 0.144489 
0.303684 0.315413 -0.065640 
0.049007 -0.173917 0.306645 
0.220973 0.118436 0.095289 
0.093903 0.165767 -0.065019 
0.400352 0.283675 0.054021 
0.216472 0.004685 0.064270 
-0.289197 -0.446320 -0.108368 
0.164440 -0.036673 0.098672 
-0.015647 -0.069518 -0.088559 
0.343747 0.353015 -0.088020 
0.056786 0.042313 0.108374 
0.189610 0.171648 -0.083691 
-0.014325 -0.320459 0.165758 
-0.116209 -0.199947 0.145211 
0.233396 -0.042339 -0.097922 
0.342347 0.192925 0.097397 
0.346320 0.298322 0.096334 
0.013700 0.061733 0.074867 
0.349476 0.429777 -0.071717 
-0.260513 -0.200099 0.202504 
0.311072 0.302839 -0.057711 
0.128387 -0.141882 -0.014486 
-0.071737 0.014252 0.036015 
0.012947 -0.267971 0.312287 
-0.293859 -0.482641 -0.085288 
0.355578 0.271002 -0.020477 
0.061052 0.124149 -0.030593 
0.181700 0.179522 -0.021669 
0.033199 -0.145760 0.308234 
0.300854 0.305681 0.005325 
-0.174703 -0.176642 0.312768 
0.015297 -0.311297 0.228905 
0.009710 -0.211004 0.041372 
0.115525 -0.096056 -0.199801 
-0.402583 -0.339953 0.052597 
0.305874 0.327082 0.023909 
-0.286215 -0.200154 0.165838 
0.024011 0.049996 -0.083135 
0.071276 -0.069856 -0.144170 
-0.347665 -0.305898 0.155787 
0.318992 0.396281 0.052692 
0.348970 0.309795 -0.042938 
-0.037152 -0.253292 -0.376483 
0.047091 0.134744 -0.095280 
0.318261 0.203682 -0.052806 
-0.116847 -0.072384 0.148603 
0.135408 -0.146663 0.148705 
-0.012644 0.006641 -0.297612 
0.071850 0.052728 0.092739 
0.229658 -0.036447 -0.011454 
0.260066 0.246679 -0.009292 
0.102941 -0.208821 0.227615 
0.045519 -0.284886 0.232994 
0.338709 0.259888 -0.034797 
0.265960 0.105512 0.085560 
0.266399 0.095142 0.072593 
0.160763 0.121013 0.069888 
0.435478 0.431714 0.018356 
0.369204 0.378051 -0.062563 
-0.009207 -0.024294 0.228746 
-0.193159 -0.118083 0.159118 
0.217327 0.024745 0.075928 
0.322724 0.153452 0.068689 
-0.260641 -0.466528 -0.132314 
0.102318 0.163494 -0.111760 
-0.297771 -0.296512 0.165532 
0.009901 0.026381 -0.268473 
-0.048178 -0.006069 -0.267449 
-0.105175 -0.020646 0.086610 
-0.420182 -0.349463 0.029761 
0.246379 0.023468 0.043104 
-0.117237 -0.258978 0.261128 
0.286213 0.317139 -0.012677 
-0.058110 0.019097 -0.296875 
0.233804 0.193660 0.032328 
-0.133907 -0.213399 0.331179 
0.312971 0.329633 0.063307 
0.035977 0.078798 -0.000517 
0.329889 0.465604 -0.044611 
-0.200587 -0.228609 0.212927 
-0.045761 -0.000180 -0.353011 
0.256708 0.020829 0.022154 
-0.280410 -0.455343 -0.039724 
-0.080564 -0.046540 -0.017580 
0.160857 -0.111839 0.005774 
-0.247642 -0.467310 -0.103318 
0.144569 -0.162255 0.101990 
-0.228961 -0.423917 0.016775 
-0.473188 -0.406328 -0.030246 
0.164358 0.028579 -0.181887 
0.263336 0.479847 -0.054179 
0.294217 0.392138 -0.097946 
0.113289 -0.179761 0.170727 
0.304280 0.408583 0.041840 
0.220963 0.171921 0.047571 
0.341113 0.421333 0.077822 
-0.007894 0.008617 -0.060591 
-0.462080 -0.363659 -0.057872 
0.014755 -0.186631 -0.259515 
0.283415 0.413521 0.030448 
0.240162 0.441025 -0.062562 
-0.075808 -0.155365 0.024992 
0.301206 0.254226 -0.053025 
-0.065804 0.023458 0.051198 
-0.297938 -0.258279 0.123125 
-0.019756 -0.320986 0.243002 
-0.171863 -0.086016 0.229394 
0.063507 -0.052710 0.207859 
-0.036430 -0.330359 0.150921 
-0.266935 -0.463907 -0.129494 
0.242099 0.506956 -0.093574 
0.160102 0.167861 -0.107984 
0.292219 0.218215 0.089623 
0.038913 0.107522 -0.059090 
-0.042975 -0.332685 0.152648 
0.045456 0.031450 -0.187095 
0.311898 0.217313 -0.055334 
0.099629 0.168595 -0.058685 
-0.163274 -0.342918 0.066173 
-0.143850 -0.199379 0.153859 
0.090493 -0.230564 0.222893 
0.253447 0.499624 -0.124223 
-0.223941 -0.416822 -0.007404 
-0.128799 -0.357374 0.117384 
-0.299525 -0.236066 0.125845 
-0.177813 -0.242438 0.265057 
0.229054 -0.047526 -0.066663 
-0.079341 -0.258909 0.323835 
0.199769 0.142692 -0.111842 
-0.034638 -0.087815 -0.067069 
0.017402 -0.303902 0.195765 
0.263422 0.335691 -0.052018 
-0.002853 -0.242147 0.082561 
-0.077000 0.005822 0.028233 
0.202269 0.118900 -0.119944 
0.079594 -0.057449 -0.181375 
-0.107442 -0.253592 0.299572 
-0.034858 0.041998 0.087221 
-0.265320 -0.250142 0.192987 
-0.030592 -0.231160 -0.397253 
-0.014087 -0.188211 0.339044 
0.055615 -0.131464 0.287408 
-0.135835 -0.243250 0.219908 
0.099850 0.105654 0.054622 
0.110944 0.175269 -0.080685 
0.201365 -0.015193 -0.161939 
-0.141247 -0.340021 0.112900 
-0.168718 -0.238775 0.244585 
0.353542 0.321539 0.093260 
0.075010 -0.244313 0.187320 
-0.186794 -0.194693 0.185253 
0.369284 0.444868 0.003790 
-0.026920 -0.246272 -0.358977 
-0.015127 -0.251626 0.333622 
0.158783 -0.040164 0.106689 
0.241595 0.479781 -0.069881 
0.397938 0.380961 0.059812 
-0.082361 -0.041271 -0.443816 
-0.451187 -0.357651 -0.023577 
-0.020604 -0.211920 -0.375742 
0.000767 -0.310298 0.156825 
-0.266304 -0.441498 -0.054603 
-0.034786 -0.017541 0.196679 
0.385376 0.435690 0.014523 
0.059918 0.114134 -0.165260 
0.387834 0.256482 0.072038 
0.203047 -0.069523 -0.099656 
-0.079456 -0.078157 -0.022146 
0.175119 0.029901 0.102765 
0.232020 0.187919 0.042580 
-0.013716 -0.040451 0.262413 
0.047688 -0.126813 -0.262574 
0.300680 0.109751 0.018345 
0.091606 -0.101954 0.224517 
-0.348282 -0.289103 0.155987 
-0.152097 -0.074410 0.248868 
-0.020599 -0.231142 -0.380626 
0.394562 0.331910 0.000638 
0.203277 0.099411 -0.131425 
-0.036514 -0.008063 -0.049315 
0.403568 0.372199 0.006266 
0.030010 -0.278087 0.129296 
0.219680 0.469974 -0.095613 
0.044063 0.013394 0.147180 
-0.019814 -0.132548 0.328663 
-0.014487 0.047284 -0.249893 
0.217192 0.085134 0.098655 
0.304305 0.176238 0.106696 
0.260184 0.053171 -0.127749 
0.279649 0.060682 0.011989 
-0.263085 -0.265866 0.150562 
0.152941 -0.030207 0.110402 
0.100992 -0.200732 0.155088 
0.114294 -0.151830 0.204255 
0.303588 0.281176 0.072365 
-0.072837 -0.115049 -0.017068 
0.356817 0.222652 -0.020668 
-0.323919 -0.313491 0.124103 
0.019864 0.048547 -0.106958 
-0.032529 -0.282684 0.091884 
0.055475 0.009021 -0.160944 
0.074713 -0.007193 0.154674 
0.353447 0.253422 0.105269 
0.363448 0.387795 -0.072449 
0.017106 0.078854 -0.144913 
-0.439967 -0.387508 -0.003097 
0.060907 -0.251038 0.165132 
-0.115030 -0.135531 0.340204 
0.110059 -0.187042 0.194939 
0.080257 -0.235766 0.260768 
0.036083 -0.254282 0.306954 
0.005992 0.054503 -0.161676 
0.264296 0.429802 -0.108661 
0.131299 0.092940 0.082125 
0.394820 0.345553 0.076627 
0.009760 -0.221427 0.070350 
0.238152 0.447729 -0.070642 
-0.125256 -0.148399 0.341500 
0.003712 0.029220 -0.161811 
0.079340 -0.217553 0.146032 
0.011458 -0.103048 0.301038 
0.231186 -0.038375 -0.024068 
-0.260966 -0.252135 0.140106 
0.211396 0.005461 0.068843 
0.398671 0.303830 0.012317 
-0.286455 -0.285981 0.171222 
0.033383 0.097049 -0.061544 
-0.033957 -0.130081 -0.041833 
-0.072147 0.004619 -0.346916 
-0.056051 -0.022811 0.192601 
-0.001427 0.033163 -0.278983 
0.110176 -0.080506 0.182169 
0.065322 -0.258574 0.198899 
-0.204958 -0.159264 0.274220 
0.296757 0.315879 -0.002093 
0.278378 0.265742 0.015866 
0.169311 -0.061385 0.089989 
0.193372 -0.063094 0.020989 
-0.030914 -0.184485 0.015458 
0.182707 -0.073222 -0.039162 
0.155966 -0.093509 -0.033387 
0.117026 -0.110174 0.185904 
0.140814 0.024162 0.109463 
0.012229 -0.187288 -0.301803 
0.155322 0.184905 -0.044903 
-0.233979 -0.204354 0.152579 
0.061049 -0.090408 -0.126409 
0.013931 -0.203354 0.022113 
0.183122 -0.065946 0.052517 
0.014079 -0.179906 -0.017644 
0.036299 0.044559 0.108688 
0.270549 0.437911 -0.116634 
0.129828 -0.144022 0.160234 
-0.175090 -0.104614 0.152384 
-0.224933 -0.450409 0.007675 
0.381348 0.351062 -0.020700 
-0.195296 -0.385833 0.033262 
-0.238728 -0.155638 0.194449 
-0.397376 -0.352075 0.059825 
0.285303 0.473392 -0.032989 
0.051357 0.130965 -0.130040 
0.092513 0.075184 -0.180562 
-0.044200 0.036660 0.090604 
-0.373213 -0.299159 0.134595 
0.347255 0.436600 -0.066457 
-0.047671 0.029377 0.109193 
-0.089978 -0.002155 -0.366841 
-0.085485 -0.322479 0.220604 
0.321070 0.162258 0.090916 
-0.055611 -0.025281 -0.378440 
-0.032737 -0.007062 -0.308572 
-0.141433 -0.168411 0.143940 
-0.125368 -0.252262 0.241613 
0.039932 -0.235303 0.310924 
0.291144 0.058383 -0.024538 
0.345654 0.320039 0.091336 
0.223072 -0.053414 -0.074453 
0.059037 -0.224484 0.129782 
0.185929 0.018918 -0.176292 
-0.053813 -0.326455 0.222464 
0.149948 0.089535 0.088962 
0.076369 -0.219325 0.076339 
-0.415508 -0.338037 0.082920 
0.170480 0.124840 0.071138 
0.000197 -0.204679 0.028911 
-0.170357 -0.398899 0.077066 
-0.115519 -0.078449 0.060006 
0.047369 -0.138958 -0.202063 
-0.196361 -0.183609 0.169863 
0.403225 0.412859 -0.004106 
-0.244650 -0.244412 0.163639 
0.200175 -0.052674 0.025391 
0.307004 0.191282 -0.060444 
0.110178 -0.184634 0.220652 
0.196952 -0.071237 -0.078893 
0.285839 0.349764 0.012178 
0.366351 0.449436 -0.008451 
0.327508 0.391811 -0.097428 
0.073860 0.126366 -0.004066 
-0.362189 -0.320366 0.137953 
-0.137476 -0.236386 0.303822 
-0.147714 -0.077049 0.272835 
0.221074 -0.042255 -0.000884 
-0.226351 -0.177045 0.238851 
0.083641 -0.171445 0.277186 
0.319421 0.138982 0.038405 
0.098462 0.015581 0.124512 
-0.094794 -0.266320 0.303841 
0.381963 0.383042 -0.039802 
0.088508 0.063775 0.085318 
0.139648 0.064057 -0.172818 
-0.054929 -0.112018 0.331571 
-0.374639 -0.292676 0.117949 
0.192037 -0.073389 -0.124980 
0.058635 -0.103938 -0.088108 
0.304093 0.458273 -0.004486 
-0.244014 -0.219295 0.135480 
0.285882 0.278467 0.012934 
-0.068024 -0.326577 0.247766 
-0.122273 -0.252318 0.265049 
0.260640 0.396093 -0.008591 
-0.122602 -0.251197 0.181369 
-0.277560 -0.498288 -0.097692 
0.229328 0.038713 -0.150665 
0.058393 0.060372 0.083892 
0.241954 0.207838 0.023589 
0.237951 0.502488 -0.086048 
-0.095340 -0.032409 0.156882 
0.359830 0.193482 0.017647 
0.196702 -0.073550 -0.107845 
0.178120 -0.086532 0.013237 
-0.064027 -0.205275 -0.391464 
-0.019882 -0.229425 -0.327795 
0.113345 -0.175317 0.194783 
-0.065997 0.020196 0.037203 
0.023823 -0.175222 -0.247932 
0.110524 -0.165592 0.226173 
0.012178 0.028089 0.135132 
0.184602 -0.043604 -0.175105 
-0.158332 -0.077530 0.234879 
0.241680 -0.011249 0.014395 
0.111053 0.168616 -0.109375 
0.044863 -0.125344 0.291835 
-0.115543 -0.205649 0.338944 
0.011085 -0.298074 0.283577 
0.108435 -0.110573 -0.059436 
0.055056 0.037506 0.114748 
0.290278 0.318214 -0.067814 
0.366955 0.315535 -0.022688 
0.172226 0.093050 -0.147198 
-0.145597 -0.236494 0.218448 
0.017478 0.082868 -0.137083 
0.328907 0.255156 0.100477 
0.100490 0.147281 -0.137078 
0.248522 0.072705 -0.125884 
-0.125585 -0.322351 0.094946 
-0.198552 -0.103579 0.217181 
-0.271316 -0.215735 0.195425 
0.287174 0.052526 -0.086390 
0.118432 -0.032263 -0.180321 
-0.268682 -0.239466 0.130606 
-0.094233 -0.154064 0.347483 
-0.171251 -0.410737 0.041058 
0.296908 0.436938 -0.109614 
0.123369 -0.190807 0.086986 
-0.065552 -0.029609 -0.355976 
0.292745 0.291259 0.037566 
-0.088809 -0.010683 0.132857 
-0.120795 -0.380219 0.073723 
-0.069649 -0.210100 -0.378126 
-0.121776 -0.228145 0.321552 
-0.044514 -0.201650 -0.309756 
0.100707 -0.214285 0.214367 
-0.256145 -0.201067 0.130122 
0.009095 -0.249778 0.324010 
0.126297 -0.164190 0.013297 
0.231485 0.480714 -0.081880 
0.113873 0.171089 -0.030267 
0.344749 0.328654 -0.065196 
0.105004 -0.184282 0.241268 
0.045811 0.127777 -0.075816 
-0.482923 -0.358794 -0.029459 
0.139263 0.116983 0.068040 
-0.028670 0.005717 -0.225986 
-0.068634 -0.013725 -0.443735 
0.266481 0.455715 -0.032126 
0.167882 -0.100079 0.078184 
0.026276 0.032141 -0.082248 
0.075431 -0.215774 0.057339 
0.199919 0.015178 -0.161088 
-0.088125 -0.030287 -0.360908 
0.018176 -0.108493 0.299110 
0.267021 0.497464 -0.077470 
-0.426558 -0.340828 0.035900 
0.302441 0.193679 0.105605 
0.284195 0.095088 0.037837 
-0.083626 -0.209360 0.344994 
0.255954 0.014897 0.020187 
0.050118 0.114580 -0.164897 
-0.042534 -0.043790 0.274161 
-0.439755 -0.379047 -0.022066 
0.018644 0.020760 -0.250521 
0.272542 0.437291 -0.004279 
-0.139703 -0.064987 0.254869 
0.244163 0.150547 -0.093587 
0.137102 -0.163956 0.130889 
-0.063812 -0.340371 0.169816 
0.124876 0.001151 -0.182607 
-0.241351 -0.213761 0.232120 
0.099379 -0.089429 -0.111971 
0.287168 0.256489 -0.051468 
0.216046 0.149036 -0.102914 
-0.027127 -0.245081 -0.385027 
-0.387065 -0.336075 0.069489 
-0.170848 -0.223391 0.232570 
-0.049688 -0.328919 0.202397 
0.238481 0.438564 -0.112134 
0.073833 0.101195 0.028152 
-0.458530 -0.383529 0.037893 
-0.000373 -0.208419 0.038290 
-0.158568 -0.246750 0.261149 
0.037011 0.078532 -0.021120 
0.002356 0.048156 0.101585 
-0.067710 -0.339114 0.132454 
0.295826 0.414662 0.036950 
0.357041 0.188497 0.040374 
0.262541 0.232800 0.034001 
0.334222 0.329710 -0.068317 
-0.006815 -0.262490 0.325634 
0.064696 0.044128 -0.178535 
-0.063282 -0.218883 0.123406 
-0.116054 -0.106206 0.092156 
0.091076 0.038693 -0.177392 
0.222220 0.462646 -0.095472 
0.223373 0.106535 -0.118542 
-0.055585 0.005374 0.152235 
-0.192820 -0.131155 0.283023 
0.018257 -0.241323 0.322720 
-0.100331 0.009253 -0.434234 
0.065715 -0.002203 -0.162632 
-0.024458 -0.234341 -0.396990 
0.249926 0.229650 -0.028127 
0.256437 0.141525 0.101290 
-0.276666 -0.449009 -0.054070 
0.072381 -0.084275 -0.139351 
-0.023265 -0.209719 0.058596 
0.179630 -0.042912 0.073863 
0.174049 -0.019263 -0.176760 
-0.047554 0.018972 -0.324716 
-0.120554 -0.079784 0.136487 
0.143654 -0.162846 0.061284 
-0.139933 -0.244900 0.273039 
0.391616 0.283507 0.080912 
-0.041892 -0.275354 0.325131 
0.214961 -0.060801 -0.102975 
-0.069200 -0.068450 -0.037131 
0.062595 -0.103863 -0.247576 
0.122280 -0.192344 0.105784 
0.252393 0.510555 -0.104484 
-0.082874 0.003101 -0.448803 
-0.017080 0.012880 -0.047952 
0.279439 0.096704 -0.086366 
0.318338 0.416544 -0.100006 
0.042122 -0.218768 0.060855 
-0.016382 -0.192495 -0.329498 
-0.048566 0.013522 0.143374 
-0.016663 -0.178972 -0.285861 
0.055723 -0.124082 -0.260220 
0.399661 0.276910 0.045188 
0.020578 -0.136286 -0.229073 
0.053032 -0.141447 -0.265717 
0.301731 0.465750 -0.017510 
0.091016 -0.019595 -0.169930 
0.115226 -0.167158 0.183923 
-0.005812 -0.179264 -0.011475 
-0.046955 -0.219670 -0.330528 
0.186849 -0.073310 0.013867 
0.141559 -0.158448 0.125021 
0.012412 0.020630 -0.146646 
0.115885 -0.089921 -0.130257 
0.048528 0.087026 0.015795 
0.227134 0.098491 -0.121782 
-0.006006 0.046735 -0.215419 
-0.171945 -0.178272 0.151672 
-0.418788 -0.346517 0.085637 
-0.040014 -0.033453 -0.064093 
0.194562 -0.064131 0.006463 
0.295361 0.383102 -0.094781 
0.377961 0.224913 0.053764 
0.154077 -0.121193 0.003517 
-0.193797 -0.203404 0.193702 
0.006061 -0.099197 0.301756 
0.124897 0.144523 0.029241 
0.117712 -0.084100 -0.111793 
-0.197209 -0.395873 0.055278 
0.144710 -0.164069 0.086091 
0.270810 0.086511 -0.098647 
0.203479 0.037144 -0.159933 
-0.428654 -0.341794 0.069140 
-0.009370 0.052792 0.003044 
0.350100 0.226758 -0.027664 
-0.104074 -0.277116 0.261898 
0.172903 -0.080083 -0.075200 
-0.429213 -0.360882 0.081356 
0.004280 -0.318318 0.218691 
0.002083 -0.273807 0.102440 
0.054943 -0.160747 0.299302 
0.183112 0.116977 -0.129766 
0.208882 -0.005184 -0.156604 
0.008914 0.066830 -0.183063 
0.182698 -0.063645 -0.156744 
-0.398074 -0.349406 0.103054 
-0.069549 -0.215490 0.345934 
0.223060 0.077445 -0.138683 
0.100004 -0.094348 -0.076222 
-0.127341 -0.324240 0.123589 
0.291693 0.193757 -0.067903 
-0.077786 -0.124408 0.339201 
0.306278 0.334973 0.035530 
0.103679 -0.152219 0.243526 
0.012356 -0.064390 0.272735 
-0.459954 -0.373044 0.053726 
0.021706 -0.168448 -0.032712 
0.252642 0.371992 -0.056142 
-0.122104 -0.319415 0.125190 
-0.083200 -0.132099 0.341967 
0.159048 0.115534 0.073536 
0.154676 -0.042279 0.111940 
-0.018327 0.050688 0.015775 
0.037683 -0.047673 0.228420 
-0.388462 -0.321396 0.120565 
0.134574 0.184121 -0.064039 
-0.071320 0.002019 -0.321316 
0.264633 0.326091 -0.035762 
0.096886 -0.215076 0.242912 
0.093619 -0.201367 0.034150 
0.076159 -0.219556 0.141319 
-0.039174 -0.198494 0.345265 
0.042775 0.117540 -0.063835 
-0.122248 -0.122512 0.123841 
-0.009589 -0.104701 0.313023 
0.009009 -0.240545 0.087340 
-0.050452 0.033125 0.034974 
0.304438 0.391200 0.036640 
-0.084802 -0.008947 0.138467 
-0.486019 -0.398715 -0.012902 
-0.096158 -0.008400 0.099825 
0.269955 0.075708 -0.105614 
0.337736 0.211019 0.107667 
0.327353 0.163286 0.080378 
-0.015592 -0.182939 -0.317532 
-0.061049 -0.143024 -0.007619 
-0.472101 -0.388664 0.004667 
-0.239718 -0.462162 -0.000023 
0.315370 0.383942 -0.097502 
0.311415 0.454995 0.000613 
0.018260 0.064536 0.069418 
-0.024544 -0.143850 0.333874 
0.403880 0.369794 0.021569 
0.153398 -0.026928 -0.187965 
0.014980 0.067126 -0.098041 
-0.219992 -0.150646 0.158372 
-0.025119 -0.265134 0.330280 
0.098586 -0.159860 0.255543 
0.140769 -0.158326 0.036891 
-0.046601 0.015659 -0.247053 
-0.062061 -0.020684 -0.398950 
0.317713 0.292797 -0.051937 
0.042706 0.026260 0.132461 
0.048437 -0.161292 -0.251742 
-0.188208 -0.110739 0.267672 
0.148710 0.095385 -0.155566 
-0.129076 -0.058056 0.254412 
0.189073 0.052228 -0.165277 
0.198213 0.050959 -0.161522 
0.271367 0.241304 0.048470 
0.014074 -0.150834 -0.239366 
-0.045928 -0.003693 -0.258438 
-0.086830 -0.148249 0.037469 
-0.034156 -0.227461 -0.293045 
0.051152 -0.109427 0.276957 
0.396705 0.276819 0.063005 
0.046128 -0.282559 0.253724 
-0.006490 -0.289995 0.302750 
-0.183712 -0.205101 0.303282 
0.084302 0.137672 -0.136696 
0.096164 -0.107607 0.222098 
0.081475 -0.028067 0.168006 
0.136151 -0.007509 -0.184534 
-0.102361 -0.234777 0.323586 
0.274150 0.105847 0.074111 
-0.095488 -0.107416 0.016943 
-0.480391 -0.368141 -0.002256 
-0.134590 -0.150571 0.338166 
0.294917 0.263048 -0.051631 
0.069432 -0.090278 -0.159853 
0.133858 -0.013900 0.119839 
-0.022308 -0.050561 0.277451 
-0.114362 -0.229772 0.321707 
0.265421 0.039544 0.022336 
0.048362 -0.280315 0.198629 
0.386570 0.402727 0.056885 
-0.078701 -0.002771 0.014892 
0.160002 -0.079755 -0.049314 
-0.003557 0.043149 -0.170234 
0.275979 0.494259 -0.077908 
0.166455 -0.058032 0.096056 
-0.131624 -0.059278 0.204248 
-0.039406 -0.008469 0.181049 
-0.351672 -0.289190 0.150214 
0.245828 0.043918 -0.141124 
0.259371 0.388494 -0.009717 
-0.104395 -0.083854 0.026472 
0.104230 -0.093626 -0.134091 
0.069507 -0.070397 -0.186964 
0.141156 -0.028494 -0.186016 
0.350651 0.354381 -0.081936 
-0.041622 0.028386 -0.299942 
0.080435 -0.052814 -0.162878 
0.267584 0.084113 -0.103207 
0.062215 0.118811 -0.159506 
0.073394 -0.241681 0.176107 
-0.213658 -0.231454 0.197361 
0.298149 0.331497 0.009754 
0.050412 -0.011217 -0.149696 
-0.060353 0.018209 0.120430 
-0.310592 -0.306696 0.158637 
0.207245 -0.066269 -0.110299 
-0.054418 -0.219628 -0.343770 
-0.005182 -0.170112 -0.298676 
-0.070405 -0.335138 0.070354 
0.284623 0.082042 0.012862 
-0.160687 -0.239711 0.284421 
-0.101649 -0.041703 0.242900 
0.106498 0.008078 -0.179573 
-0.066824 -0.228444 0.342204 
0.271196 0.367850 -0.077208 
0.230665 0.206581 0.002000 
0.072776 -0.078694 -0.220002 
-0.103487 -0.279887 0.256291 
0.232588 0.058351 -0.142578 
0.240573 -0.032066 -0.043864 
0.121638 0.172091 -0.108667 
0.323851 0.178083 0.102169 
-0.262916 -0.438445 -0.021092 
-0.012413 -0.194606 0.339022 
-0.021360 0.028691 -0.201096 
-0.108586 -0.028084 0.075941 
-0.086907 -0.332663 0.147419 
-0.373501 -0.339531 0.112690 
-0.193345 -0.167042 0.148737 
-0.147371 -0.389979 0.073892 
-0.189965 -0.197161 0.190025 
-0.116330 -0.045655 0.086279 
-0.450220 -0.359009 0.062033 
0.111344 -0.030355 0.145164 
0.282535 0.049396 -0.098241 
0.051072 -0.095014 -0.207904 
-0.155404 -0.107352 0.145193 
0.029438 0.104688 -0.165841 
-0.095777 -0.289444 0.148916 
0.268557 0.452495 -0.026752 
0.027196 0.049260 -0.068260 
0.380485 0.344546 -0.018537 
