-0.185015 0.001215 0.127257
-0.240662 0.417747 0.146667
-0.038791 0.498997 0.127342
0.069597 0.287748 -0.199977
-0.193966 0.498996 0.022474
0.264583 0.312812 -0.073519
-0.020984 -0.134048 -0.193162
-0.070077 0.092867 -0.117972
-0.157841 0.154834 -0.121168
-0.174211 0.252751 -0.174878
-0.119610 -0.296903 0.120038
0.273256 0.235016 0.141431
-0.271110 0.239295 -0.055582
-0.058690 -0.218219 0.136380
0.016681 0.256218 0.218198
0.176706 0.498922 -0.201131
-0.253265 0.327162 -0.007415
-0.065526 0.499417 -0.132575
0.252196 0.398703 0.063678
-0.018105 -0.359197 0.133187
-0.284183 0.110503 0.004511
0.172732 0.409802 0.211264
-0.139736 -0.027139 0.111824
-0.068987 -0.447603 -0.118961
-0.023832 -0.190913 0.132533
-0.005613 -0.100925 -0.195935
-0.015266 0.283440 -0.193591
0.253599 0.378769 0.161303
-0.030768 -0.145475 0.132873
0.020242 -0.104061 -0.206084
-0.166394 -0.189585 0.035277
0.247393 0.363653 -0.182736
0.171772 0.094149 0.222904
-0.000335 -0.474652 0.060798
0.102773 -0.431408 -0.082541
-0.067584 0.190810 -0.166264
-0.283289 0.120269 0.153486
-0.010721 -0.494417 -0.045782
-0.279974 0.163895 0.057809
0.037066 -0.068076 -0.090099
0.128123 -0.197069 0.000455
0.015644 0.093684 0.222186
-0.038049 -0.493656 0.002744
-0.099933 -0.139681 -0.130214
0.083512 -0.341575 -0.123925
-0.043339 -0.291913 -0.184570
-0.007951 -0.107513 0.130469
0.106972 0.412216 0.211036
-0.264081 0.232352 0.180438
-0.250821 0.258772 -0.125537
0.153003 -0.221113 -0.061156
0.123689 0.146974 -0.136466
-0.254791 0.061519 0.041383
0.176469 0.498998 0.178847
-0.052448 -0.060739 -0.099834
0.084709 -0.079719 0.084414
0.250930 0.414131 0.067561
0.165235 0.446052 0.210015
-0.105061 -0.160859 0.144985
0.111873 -0.307269 0.103739
0.253516 0.041909 0.074381
0.244555 0.323527 -0.177907
-0.017100 0.189612 -0.162782
-0.223206 0.245708 0.218981
0.274627 0.233713 0.072562
0.253497 0.386815 0.091733
0.245439 0.460672 0.012788
0.172029 -0.284837 -0.062749
0.018291 -0.491975 -0.047832
-0.179678 0.245868 -0.168981
0.109608 -0.353669 0.089788
-0.069254 -0.376352 -0.171034
-0.090158 0.078948 0.226220
-0.132762 -0.238503 0.118936
0.195933 0.225999 -0.154695
-0.286281 0.105244 0.148105
-0.137869 -0.276821 0.076373
-0.109223 -0.378691 0.095650
0.004115 0.126867 -0.141530
0.049527 -0.476177 -0.075284
-0.121425 -0.209136 -0.029735
-0.199285 0.094675 -0.044446
0.126634 -0.426793 -0.016677
0.252218 0.258772 0.217182
-0.247016 0.059683 0.035977
-0.141764 0.499115 -0.106102
-0.262940 0.282046 -0.094622
0.113369 0.170668 0.221150
0.188728 -0.240712 -0.011240
0.146782 0.307974 0.216029
-0.119056 0.498997 -0.088286
-0.111837 -0.223531 -0.089181
-0.075953 -0.090381 -0.050888
-0.048826 -0.267259 -0.174435
-0.056514 -0.397952 -0.170732
-0.272327 0.180347 0.173036
-0.162336 -0.255717 0.088215
-0.102552 -0.458064 0.028743
0.172684 0.070603 0.222312
0.009248 0.498997 0.088193
-0.145532 0.014800 0.006364
0.241306 0.486893 -0.147581
-0.172669 -0.209229 0.049053
0.155768 0.498975 -0.160078
0.145113 0.005664 0.176503
-0.094963 0.498997 -0.064716
0.127038 -0.183604 0.015119
0.222175 0.343557 0.214032
0.251174 0.236419 -0.124356
-0.087297 -0.445128 -0.096182
-0.161558 0.382832 0.210450
-0.191313 0.498997 -0.000897
0.229675 0.498989 -0.048668
0.288904 0.075637 0.163793
0.053769 0.498990 -0.195327
0.050438 0.009108 0.178694
0.259251 0.157850 -0.063399
0.109963 -0.206505 0.122628
0.030517 0.446837 -0.217256
0.093328 -0.444379 -0.085605
0.246447 0.170087 0.220465
-0.249771 0.084090 0.210025
-0.064542 0.001065 0.176161
0.130672 0.253946 -0.190297
-0.110946 0.422763 -0.220353
-0.075358 0.176001 0.221557
0.289779 0.126083 0.008121
0.014183 -0.395004 0.124469
-0.165448 0.145943 -0.111553
-0.021289 -0.160311 0.149847
0.138310 0.498996 -0.085844
0.085421 -0.125165 -0.051440
0.254006 0.381342 0.121286
0.023734 -0.305739 0.133837
-0.006048 -0.487753 0.039668
0.252677 0.359663 -0.167873
-0.037802 -0.178498 0.125278
-0.095143 0.381409 -0.224699
0.172358 -0.256156 -0.001401
0.106698 -0.351839 0.092841
-0.012974 0.399489 0.210829
0.066068 0.180735 0.220680
0.142662 0.498999 -0.084052
-0.232224 0.459803 -0.112132
0.022339 0.136489 0.221567
-0.118587 -0.371808 -0.099036
-0.138264 0.291106 0.216550
0.275908 0.230146 -0.032396
-0.163209 -0.308550 0.004992
-0.167064 0.498997 0.118717
-0.070522 -0.409787 -0.158164
0.250082 0.404637 -0.108196
-0.067629 -0.037279 -0.183110
-0.089358 0.432887 -0.221377
0.275200 0.234122 -0.011016
-0.006670 -0.198862 0.178809
0.031723 0.499174 -0.128973
-0.130958 -0.270764 0.085906
0.247902 0.317284 -0.173138
-0.255743 0.315434 -0.081739
-0.070914 0.281539 -0.201857
0.186606 0.498996 0.081625
-0.157573 -0.352608 -0.054318
-0.106899 -0.229750 -0.120304
0.094094 0.459744 0.209527
0.171628 0.141837 0.221898
-0.143935 0.474399 0.205919
0.187750 0.477157 0.209180
0.262337 0.325163 -0.010548
0.121280 -0.312101 0.085319
0.248406 0.431715 0.116461
-0.104833 -0.124550 -0.071533
-0.274058 0.152115 0.206752
0.276478 0.066929 0.199933
0.183124 -0.193558 0.042030
-0.069344 -0.039915 -0.060616
0.271027 0.266865 -0.047838
-0.048734 -0.488186 -0.034419
0.147716 -0.336812 0.027202
0.009673 -0.296583 0.137903
-0.166746 -0.278148 0.047569
-0.186165 0.076388 -0.044576
-0.154003 -0.248754 -0.014510
0.016582 -0.436963 0.096300
-0.110367 -0.118339 -0.167587
0.147062 0.054139 -0.073863
-0.113706 -0.204462 -0.072876
0.016901 -0.314588 -0.186471
0.002626 0.123330 0.222560
-0.107073 -0.109588 -0.061618
-0.099776 0.299823 -0.209685
-0.237343 0.441547 0.065077
-0.012333 -0.102036 0.112854
-0.110899 -0.142570 0.074314
0.264740 0.296653 0.154373
-0.000915 -0.268843 -0.172554
-0.215547 0.340822 0.212535
0.099935 -0.394280 -0.115308
0.096283 -0.118042 0.026981
0.012290 0.499067 -0.103419
-0.002972 0.498995 -0.016014
-0.169396 -0.232346 -0.011545
0.227921 0.029200 0.062849
0.261636 0.313383 -0.151250
0.183528 -0.276662 -0.006074
-0.262187 0.253429 0.134084
-0.130196 -0.170892 0.037458
-0.270178 0.208839 0.109136
-0.095398 -0.059172 -0.178738
0.213056 0.030703 0.034958
-0.100594 0.499396 0.060638
-0.244202 0.388757 0.154922
0.031704 0.498980 0.185121
-0.151401 -0.171417 0.102883
0.047914 0.450128 0.209411
-0.104554 -0.351842 0.106277
-0.256188 0.296154 0.154072
-0.242366 0.377508 -0.119025
0.268746 0.277926 0.025180
-0.166303 -0.247149 0.037675
-0.255471 0.311490 0.042071
-0.046603 0.365341 -0.222832
0.101069 -0.093955 -0.012212
-0.142251 0.499386 0.137303
0.275358 0.065271 0.048096
-0.034886 0.105219 -0.128560
0.269648 0.147909 -0.046070
-0.131830 -0.196037 0.004331
-0.253334 0.282953 0.215549
0.147492 -0.262377 -0.060429
-0.156962 0.499002 -0.061669
0.218917 0.094991 0.222759
-0.019556 -0.481272 0.048848
-0.105247 0.180170 0.221693
-0.098618 -0.149880 -0.005773
-0.116993 -0.163508 -0.038940
-0.141183 -0.295844 0.081972
0.052390 -0.143753 -0.163529
0.220943 0.144829 0.221674
0.140555 0.453423 -0.212708
-0.223673 0.019777 0.100944
-0.121963 0.005449 -0.007751
0.115623 0.498997 -0.033420
-0.100968 -0.033619 -0.148276
0.269193 0.102953 0.221958
0.056352 0.254017 -0.188066
0.094801 0.430890 -0.217220
0.129575 -0.158701 0.012424
-0.041052 -0.203045 -0.202368
0.064872 -0.046576 0.126619
-0.177792 0.164775 -0.116229
-0.155813 -0.346826 -0.025889
-0.088945 -0.089746 -0.070335
0.276825 0.222839 -0.085363
-0.082541 -0.376775 0.109838
-0.093188 -0.165946 0.149997
-0.071456 0.081293 0.225440
-0.029855 0.294005 0.216542
-0.094561 -0.043748 -0.099233
-0.009824 -0.097095 -0.199596
-0.097649 -0.258522 -0.137998
0.243389 0.492121 0.169039
-0.183086 0.450468 -0.202694
-0.129218 -0.344415 0.089252
0.087390 0.498997 -0.089318
0.010778 -0.439373 0.095385
0.091807 0.026502 0.196906
0.205073 0.327715 0.214591
0.018811 -0.476153 0.056995
-0.033642 0.499001 0.172682
-0.091258 0.132589 -0.134059
0.164519 0.498997 0.177620
-0.144446 0.498997 -0.033881
0.101386 0.128939 -0.133578
-0.267486 0.112661 -0.008253
-0.043718 -0.289165 -0.166499
0.090074 -0.008693 0.166353
-0.066902 -0.258688 -0.152313
-0.053796 -0.061881 -0.189879
-0.033895 0.498997 0.147574
0.255825 0.367465 0.107420
0.241566 0.375701 -0.187190
0.101731 0.499063 0.147640
0.050536 0.045037 0.207094
-0.077953 -0.047581 0.123333
0.088055 0.498994 0.154146
0.153599 0.365007 0.213460
0.103054 -0.067512 0.041149
-0.289657 0.080609 0.151894
-0.258086 0.273543 -0.126004
-0.061717 0.247742 0.218524
-0.133823 -0.018889 0.035730
-0.056237 -0.275204 0.129741
0.121135 0.135082 -0.130033
-0.250199 0.320953 -0.160704
-0.141685 -0.201102 0.108439
0.109259 -0.371262 -0.109837
-0.257573 0.305969 -0.058003
-0.195801 0.149572 0.224163
-0.292852 0.088072 0.064050
-0.194108 0.498997 0.066812
-0.007637 -0.499372 -0.015505
-0.141362 -0.027548 0.063071
0.067962 -0.046933 0.125787
-0.096909 -0.154447 -0.009127
0.092356 -0.266085 -0.113005
0.045312 0.030662 -0.084107
-0.227399 0.497911 -0.108403
0.087844 0.167208 -0.155681
-0.068273 -0.252625 0.127492
-0.074171 -0.034169 -0.164102
-0.041590 -0.067365 -0.193281
-0.093589 -0.183973 0.151915
-0.235055 0.433024 -0.097509
0.163233 0.397577 -0.213187
0.048293 -0.409926 0.106841
0.098237 0.453292 -0.216298
-0.104856 -0.044946 -0.153034
-0.052972 0.005778 0.179301
-0.102238 0.241183 -0.184596
-0.252444 0.331915 -0.053795
-0.139078 0.173946 -0.141335
0.279652 0.044261 0.119363
-0.110338 0.434311 -0.219870
0.151927 -0.240367 0.049976
-0.258558 0.273733 0.175466
0.051944 -0.265974 0.132614
-0.027656 0.498997 0.075494
0.273928 0.238761 0.076057
0.167637 -0.319071 -0.022566
0.099329 0.498997 0.155239
-0.112193 0.067894 0.223719
-0.066623 0.384061 0.211311
0.059244 0.498998 0.061580
-0.108307 -0.383955 0.094128
0.047979 -0.082728 -0.197533
0.243272 0.442950 -0.149240
0.163890 -0.318463 -0.041714
0.068985 0.499324 0.171844
-0.169098 0.438706 0.206609
0.252754 0.378902 0.196218
0.166142 0.170293 -0.134576
-0.093882 0.423591 0.208587
0.156640 0.112260 -0.104205
0.037229 -0.304125 0.132240
0.196238 0.246507 -0.166637
-0.064983 -0.198486 0.131572
-0.027862 -0.487325 -0.065668
-0.139362 -0.355850 -0.058318
0.193608 -0.225041 -0.000368
0.257269 0.363572 0.015865
0.184118 -0.261074 -0.034811
0.002063 -0.347300 -0.194921
-0.013802 -0.442820 0.092940
-0.077876 -0.130097 -0.187050
-0.234059 0.490367 0.133295
-0.153804 0.204346 -0.153287
-0.106424 -0.087871 -0.075631
0.138076 0.498997 -0.113475
0.074726 0.498999 -0.135015
0.286457 0.092423 0.179404
-0.215931 0.498980 -0.110009
-0.130111 -0.228049 0.117474
0.288245 0.104440 0.136635
-0.032142 -0.163942 -0.187244
0.270465 0.268663 -0.015096
0.218609 0.188441 -0.116159
0.039634 0.498997 0.029927
-0.264800 0.236089 0.141595
-0.044918 0.499008 0.181800
-0.191373 0.384401 -0.205400
0.017167 0.281206 0.217116
-0.123745 -0.077066 -0.117388
0.187590 -0.273804 -0.028652
-0.237805 0.423777 -0.019907
0.191365 -0.002827 0.075938
-0.238050 0.400130 0.206694
0.084690 -0.413925 -0.111638
0.163744 0.422157 0.210742
0.004170 -0.122749 0.137725
-0.092689 0.498996 0.066935
-0.060969 0.366853 -0.226065
-0.038807 0.498997 0.022584
0.000387 0.016086 0.182799
-0.242577 0.401647 0.137295
-0.262494 0.281168 -0.035643
-0.253255 0.271625 0.217064
0.115021 -0.122025 0.013980
0.171787 0.498997 -0.009103
0.107927 -0.176305 0.134119
0.288354 0.062448 0.178732
0.239694 0.132108 0.222079
-0.139247 0.343680 -0.220790
-0.001661 -0.218795 0.155972
-0.241540 0.394842 -0.024847
0.164044 -0.299123 -0.067698
0.035536 0.498997 0.093797
0.102175 -0.203042 0.140958
0.079111 0.049472 0.212682
-0.237501 0.409459 -0.123417
-0.143637 0.499069 -0.131305
-0.097458 0.210963 0.220599
0.024584 -0.476458 0.053530
0.266241 0.300791 -0.088603
-0.143003 -0.386588 -0.039595
-0.064843 0.499065 0.140578
-0.125237 -0.415367 0.051160
-0.003380 -0.101902 0.127795
0.141494 0.499007 -0.188178
0.203170 0.355270 0.213639
0.003870 -0.156959 0.152611
0.095683 -0.144116 -0.036487
0.041357 0.073190 -0.105589
0.097040 -0.089928 0.034164
-0.165474 0.049577 -0.041135
-0.277185 0.165578 0.115655
0.177312 0.017956 0.009722
-0.196488 0.006140 0.076787
-0.027487 -0.367652 0.131375
0.252042 0.400321 -0.006647
-0.049861 -0.373561 -0.178881
-0.098312 -0.434336 0.070171
0.266540 0.053059 0.185358
-0.221265 0.499391 0.182857
-0.149198 0.459070 -0.211909
-0.060241 -0.185812 0.128465
0.063989 -0.251842 0.124188
0.118460 0.023098 0.195592
0.219132 0.226818 0.218568
0.034384 -0.493307 -0.023716
-0.080198 -0.320405 -0.177051
0.004570 -0.451662 0.085685
0.207924 0.444740 -0.197522
-0.154930 0.050996 -0.053901
-0.015610 0.326138 -0.205091
-0.058302 0.051858 0.212779
-0.099151 -0.122541 -0.183918
0.164359 0.408147 -0.211675
0.175108 0.048389 -0.053046
-0.100240 -0.295863 -0.151910
0.264781 0.301169 0.098766
-0.114073 -0.127678 -0.107705
0.143478 -0.276287 0.060126
0.093519 0.498997 0.102921
0.176909 0.432510 0.210351
-0.206322 0.047621 0.189144
-0.201644 0.131181 0.225187
-0.103432 0.486608 -0.216579
0.187663 0.315219 -0.202299
-0.229887 0.485949 -0.108639
0.273718 0.235596 0.121721
-0.051212 -0.211131 0.157496
0.001103 0.161782 -0.158321
-0.019512 -0.232306 -0.216639
-0.041155 0.468607 0.207775
0.251173 0.392428 0.199778
0.071338 -0.423933 -0.115951
0.033054 0.310579 0.215852
-0.025309 -0.472403 0.059432
-0.002876 0.069901 0.219595
0.094761 0.447299 0.210003
0.010828 -0.415215 -0.170435
0.215026 0.021414 0.168365
-0.251156 0.097611 0.221322
-0.086783 -0.219837 0.112642
0.102139 -0.068589 0.051320
0.280134 0.195955 0.023190
-0.124423 0.476322 -0.215242
-0.139483 -0.341716 0.086693
0.228348 0.384982 -0.193534
0.229201 0.498866 0.195601
0.112182 -0.278714 -0.104061
-0.281504 0.052350 0.093534
-0.105912 0.102403 -0.112106
-0.278415 0.062904 0.159469
-0.281101 0.121935 0.176973
0.121125 0.016618 -0.033583
0.015823 -0.039080 -0.125663
-0.052643 0.348657 0.213170
-0.269064 0.246183 -0.011895
0.010499 0.498994 0.032211
-0.138645 0.205540 -0.159417
-0.016836 -0.147092 -0.190688
-0.197160 0.302976 0.215493
-0.117158 -0.216744 -0.019280
-0.077463 0.169526 0.221742
0.071499 0.498996 -0.161256
-0.269258 0.126231 -0.017107
0.103904 -0.053012 0.006152
-0.085586 0.373882 -0.226090
-0.268581 0.224481 0.084036
0.286423 0.126609 0.129353
-0.191787 0.416057 -0.201277
-0.252042 0.329620 -0.117522
0.016123 -0.050283 -0.197229
0.124496 0.498997 0.165468
0.161938 0.234392 -0.173110
0.120401 -0.197489 0.135512
0.043971 -0.260759 0.135581
0.277441 0.175380 0.208012
0.188873 -0.211164 0.026563
-0.127851 0.366882 -0.223922
0.168956 -0.217473 0.038987
-0.251732 0.338362 -0.057524
-0.286957 0.127650 0.021842
-0.231272 0.261260 0.218287
-0.158337 0.498997 0.132985
-0.262036 0.206748 0.220871
-0.186423 -0.251687 0.014302
-0.062646 0.245337 0.218557
0.219552 0.011580 0.101152
0.132197 -0.310209 -0.073767
-0.233088 0.492997 0.038833
-0.127670 -0.404479 -0.064684
0.158302 -0.214838 -0.044689
0.154670 0.064050 0.221446
0.145849 0.499330 -0.012444
-0.163394 0.498998 -0.119641
-0.266099 0.087657 0.205555
0.281572 0.138338 -0.025522
-0.089362 0.311282 0.215614
0.114953 -0.267752 -0.093883
-0.006277 0.498995 -0.097374
-0.057015 -0.319406 0.125580
0.184500 0.499321 0.072128
-0.258030 0.284032 0.134962
-0.213345 0.022949 0.064749
-0.122317 0.079587 -0.092401
-0.073189 -0.056494 -0.195598
-0.091159 -0.362506 0.107647
0.081007 0.309659 0.216026
0.131124 0.163889 -0.144312
0.094041 -0.122976 0.040650
-0.072241 -0.039482 -0.171845
0.066042 -0.277430 0.131157
0.012555 0.376844 0.211953
-0.052897 -0.125766 0.086048
0.193818 0.498999 0.015695
-0.058596 0.130422 0.223171
0.011266 -0.344621 -0.193871
0.145175 0.057506 -0.076682
0.031964 -0.024440 -0.149205
0.068833 -0.098366 -0.166081
0.130802 0.100852 -0.107441
-0.129435 -0.194044 0.006780
0.018629 -0.154937 -0.180090
-0.105309 -0.080837 -0.167597
-0.195997 0.366371 -0.205593
0.268356 0.211504 0.217910
0.086216 0.498997 0.021413
0.092130 0.498997 -0.119967
-0.004536 0.499002 0.195510
0.030923 -0.493433 -0.031728
-0.111571 -0.426969 0.060687
-0.212074 0.222847 -0.134805
0.076475 0.076327 0.222449
-0.160007 0.136206 -0.108241
0.014050 0.498997 0.191761
-0.066869 0.050565 0.212557
-0.208484 0.498997 0.081847
-0.186861 0.326879 0.214006
-0.104196 0.473157 -0.217360
0.196759 -0.213055 0.013286
-0.237463 0.444652 0.089651
-0.094405 0.091108 0.225801
-0.057463 -0.474331 -0.076893
-0.252768 0.332608 -0.057526
-0.040675 0.498990 0.015200
-0.012916 -0.233581 -0.208778
-0.281717 0.165569 0.012238
-0.057864 -0.105385 -0.195343
-0.124483 -0.212090 -0.056049
-0.125181 0.423348 -0.218362
-0.045426 -0.052252 0.126806
0.248129 0.430390 0.152305
0.199792 0.087419 0.222639
-0.002956 -0.453336 -0.137630
0.125935 0.317886 0.216014
0.041302 0.498997 -0.080890
0.246029 0.456578 0.057202
-0.212553 0.153372 -0.083302
-0.257886 0.062429 0.043023
-0.119331 0.297767 -0.207435
-0.165097 0.157511 0.223455
-0.052402 -0.262808 0.130346
0.184908 0.092529 -0.075787
-0.048734 -0.266283 0.129663
0.098248 -0.277372 -0.100802
-0.070204 -0.078759 -0.056522
0.244970 0.466680 0.100355
0.093071 0.169702 0.221166
-0.064468 -0.480306 0.015372
-0.281683 0.168033 0.004061
0.135496 -0.169913 0.062173
-0.112631 0.342836 0.213587
0.086106 -0.436230 -0.097905
-0.036952 0.499065 0.114909
-0.097005 -0.016146 -0.035472
-0.286975 0.129230 0.004747
0.294066 0.080790 0.073689
-0.002074 -0.498958 -0.020054
-0.199768 0.045548 0.011538
-0.152099 0.006249 0.162991
0.283246 0.157352 0.126047
-0.110755 -0.272802 -0.116498
-0.074695 0.285643 0.216890
-0.107075 -0.209031 -0.104581
-0.035049 -0.034654 0.143214
-0.052060 0.387600 -0.223669
-0.244397 0.305070 -0.159239
0.262878 0.294626 0.209295
-0.186304 0.498997 0.092573
-0.106000 -0.045926 0.108768
-0.021814 -0.149864 0.161815
0.249104 0.310703 -0.169534
0.011006 0.499068 -0.135009
-0.122306 -0.352545 -0.084023
-0.148927 0.009838 0.013978
-0.146407 -0.368482 0.059217
-0.229671 0.390229 -0.187216
-0.001591 -0.365544 -0.187481
-0.011500 -0.173249 -0.208892
0.089465 -0.258562 -0.117193
-0.245571 0.371183 -0.005017
-0.087907 -0.080477 -0.037525
0.146589 -0.383025 -0.022745
0.246312 0.448826 -0.067325
0.151089 -0.167619 -0.017174
0.038349 -0.412996 0.107607
-0.104967 -0.240063 -0.129419
-0.263402 0.266846 0.023340
-0.094506 -0.320921 0.114788
-0.270095 0.214640 0.087384
0.095731 -0.451394 -0.057325
0.113382 -0.197493 0.120472
-0.050739 0.241100 -0.186327
-0.251104 0.202610 0.222124
0.011484 0.230643 0.219067
0.124397 -0.287268 -0.099140
-0.234211 0.470167 0.038901
-0.243998 0.116609 0.225769
0.080783 -0.437567 0.071821
0.115062 -0.390818 -0.092245
0.061635 -0.426403 -0.125817
-0.196659 0.458212 0.204988
0.100960 -0.065611 -0.009004
-0.238030 0.173425 0.223257
0.142122 -0.220405 -0.071817
0.266446 0.290029 0.100795
-0.242347 0.406240 0.106253
0.163736 0.498995 -0.102924
-0.143655 0.498997 -0.114605
0.048427 -0.070162 -0.178730
0.252204 0.398741 0.092923
-0.076453 -0.197032 -0.155545
0.124207 -0.045270 0.088047
0.051816 0.163178 0.220898
-0.129205 -0.149621 0.082532
0.148674 0.219651 0.219431
0.100400 0.498997 0.126753
-0.018039 0.358851 -0.214808
-0.122183 -0.043766 0.085342
-0.132563 -0.318217 0.094006
-0.165085 0.049046 0.205072
-0.060275 -0.466744 0.052047
0.096701 0.260997 0.218010
-0.041735 0.256186 -0.190229
-0.251269 0.335583 0.121835
0.114715 -0.190662 0.093595
0.129763 -0.238756 -0.067692
0.014203 -0.331988 -0.193875
-0.220242 0.091404 -0.020814
-0.258799 0.300909 -0.072176
-0.144780 0.002862 0.018267
0.278768 0.091619 0.016016
-0.032765 0.009101 0.179785
-0.003386 0.446268 -0.218151
0.037610 -0.162187 -0.171415
0.116678 0.498996 0.093420
-0.054756 0.034361 0.201077
-0.099332 -0.147543 0.000310
-0.079435 0.016140 -0.060980
0.260165 0.207255 -0.096697
0.141638 -0.179438 0.071205
-0.146625 0.295531 0.216330
0.257923 0.269906 0.216284
-0.140565 -0.259201 -0.037225
-0.235502 0.454528 0.182166
0.248533 0.431479 0.133515
-0.261608 0.245540 0.195911
0.284642 0.164918 0.006593
0.139429 0.487676 0.210873
0.247668 0.437240 -0.004117
-0.142040 -0.012052 0.034843
0.252762 0.229492 0.217712
-0.086647 -0.037028 -0.164504
0.002598 -0.040730 -0.111848
-0.088589 -0.073319 -0.093767
-0.235153 0.365676 -0.187129
-0.080218 0.046215 0.210187
-0.020650 0.498996 -0.010078
0.010812 0.498889 -0.211254
-0.014549 0.062281 -0.098593
-0.051175 -0.210711 0.139900
-0.205293 0.154964 0.224004
-0.143752 0.316785 -0.211637
-0.089395 -0.195211 0.056468
-0.097967 0.255155 -0.191088
0.255903 0.356567 -0.129212
0.074447 -0.469222 -0.053025
-0.169229 -0.012079 0.109160
-0.124476 -0.018697 0.025603
-0.169273 0.211038 -0.150030
-0.258478 0.284590 0.095007
0.060169 -0.134924 -0.165824
0.038733 -0.204685 -0.163863
-0.235496 0.462834 0.134584
0.062212 -0.418477 0.096975
0.002996 -0.157794 0.169994
0.233544 0.350837 -0.192373
-0.018716 -0.227402 -0.211865
0.168919 0.099008 -0.090003
0.243343 0.300296 0.215204
0.023301 0.475208 0.208714
0.113717 -0.164848 0.082207
-0.044939 -0.239530 -0.218160
-0.128255 0.117171 -0.110954
-0.065014 -0.179798 0.125740
0.245603 0.041773 0.064657
0.049668 0.056335 0.214345
-0.289156 0.105492 0.092814
-0.233696 0.234155 0.219808
-0.246712 0.365242 0.201101
0.125854 -0.408253 0.034610
0.102370 0.206594 -0.172180
0.286860 0.141816 0.056373
-0.112368 0.051886 -0.079642
-0.064299 0.048699 0.211216
0.198389 0.203894 0.219585
0.124137 -0.289714 0.094651
-0.105207 0.245398 -0.186099
-0.149063 -0.277955 -0.062647
-0.156899 -0.359078 -0.006088
0.077778 -0.209391 0.137849
-0.093986 -0.275500 -0.146119
-0.073837 0.498997 0.054279
-0.046686 -0.403761 -0.171430
0.257766 0.342610 -0.146282
0.120993 0.048033 -0.079884
-0.265733 0.242112 0.072130
-0.261111 0.068835 0.183559
0.238187 0.216291 -0.120826
0.023342 0.498982 0.195617
0.168476 0.498996 -0.034701
-0.045266 0.161330 0.221676
0.028097 -0.165750 0.133609
-0.099653 -0.382210 0.099782
0.133326 0.078490 -0.093265
0.060459 0.416248 0.210527
-0.243923 0.362499 -0.154359
-0.052345 0.489368 0.207468
0.198313 -0.001772 0.116272
-0.252176 0.121392 -0.024696
-0.193342 0.008990 0.065450
0.181900 0.219528 0.219174
0.091686 0.221428 -0.178271
-0.090255 -0.127905 -0.043301
-0.079893 -0.064595 -0.049051
-0.148255 -0.188530 0.083583
-0.024562 -0.111974 0.118009
0.231498 0.460491 -0.184871
0.279649 0.196900 0.069460
0.154180 0.498997 0.100768
-0.059344 -0.072564 0.106933
-0.083099 0.302300 0.216045
0.160134 -0.309572 0.002056
-0.185123 0.175792 0.222711
0.057742 -0.330300 -0.175119
0.249776 0.392858 -0.141413
0.025708 0.480386 0.208896
-0.167142 -0.279348 0.040848
0.154030 0.105016 -0.100963
0.247645 0.386648 -0.168262
0.114385 0.499121 -0.183144
-0.249720 0.349748 -0.039261
-0.019230 -0.188197 -0.210015
0.095062 0.146387 0.222298
0.091245 0.452233 -0.216618
-0.222853 0.058466 0.011381
-0.245219 0.378435 0.099317
-0.276822 0.174611 0.089721
0.186315 -0.264858 -0.033916
0.043934 0.194417 0.220139
0.265514 0.066623 0.035240
0.026723 0.319007 0.215356
-0.124841 0.187804 -0.154644
-0.012495 -0.102993 -0.197985
0.022673 0.499068 -0.146966
0.118213 -0.207731 -0.040933
-0.247113 0.338549 0.210452
-0.149105 -0.295876 -0.058120
-0.098056 -0.156211 -0.098129
-0.080112 -0.281395 0.116815
0.180787 0.026923 -0.002531
-0.192992 0.498994 -0.073798
-0.120682 0.007219 -0.012315
-0.113502 -0.308127 -0.144935
-0.218780 0.499025 0.182201
0.246511 0.448798 0.056495
-0.265888 0.216911 0.193973
-0.124261 -0.067136 -0.105505
-0.120407 -0.323116 -0.075525
-0.175727 0.499357 -0.005131
-0.152456 0.498997 -0.022549
-0.093125 -0.370538 0.104738
-0.202242 0.284405 -0.178797
-0.272741 0.206670 0.059210
0.255604 0.034315 0.108272
0.004218 -0.063776 0.121842
0.086664 0.498999 -0.183081
0.137106 -0.392848 -0.067538
-0.046929 -0.246369 -0.213016
0.172541 0.114332 -0.098492
0.124789 -0.293026 0.092473
0.272745 0.048537 0.080962
-0.080790 -0.171397 0.142280
0.278768 0.207364 0.008484
0.039979 -0.175692 -0.175171
0.008708 -0.186164 0.173636
0.218874 0.498996 -0.146151
-0.033734 -0.218848 -0.200789
-0.242985 0.388309 0.038437
-0.011189 0.498997 0.164586
0.058898 -0.345616 -0.167828
0.087999 0.498997 0.094710
0.123755 -0.283709 0.074655
0.276157 0.229146 -0.055870
0.058859 -0.027578 0.147544
-0.267921 0.101279 0.001435
0.151237 0.498996 0.118834
0.099679 -0.109511 0.012268
-0.237679 0.159702 -0.064614
-0.146915 -0.244745 -0.026262
0.096571 0.499387 0.173795
-0.075991 0.441238 -0.221447
-0.126534 -0.324537 0.099482
-0.232493 0.058372 0.188651
0.122803 -0.039717 0.114551
0.111469 0.498999 -0.093489
-0.074909 -0.177120 0.127182
-0.025271 0.312857 -0.204325
0.141773 0.088842 0.222915
0.004005 0.498997 -0.000852
-0.081461 -0.117186 0.053498
-0.010423 0.130946 -0.145827
0.213436 0.128488 0.222302
0.141928 -0.154719 0.022857
0.216948 0.447302 -0.193547
-0.286806 0.129509 0.013726
-0.151781 -0.289169 -0.064994
0.101999 -0.156306 0.122416
0.191317 -0.264706 -0.030660
0.146653 -0.355019 -0.031252
0.006637 0.279385 -0.187346
0.033826 0.498997 0.128401
-0.024745 0.118561 -0.137563
-0.174246 -0.274953 -0.034453
-0.030554 -0.413957 0.110464
0.125710 0.430009 -0.215504
-0.259299 0.058673 0.169182
-0.118959 -0.017462 0.017393
-0.277332 0.198698 -0.017921
-0.269511 0.208170 0.130724
-0.082404 -0.108971 -0.043911
-0.131319 -0.274165 0.086359
-0.065003 0.026798 -0.070480
-0.118250 -0.243194 -0.067439
-0.061140 0.347034 0.213436
0.030487 -0.124424 -0.195473
0.073222 -0.095260 -0.119315
0.152105 0.498997 -0.016551
0.211872 0.114621 -0.071962
0.269461 0.271562 -0.122794
0.107301 -0.198449 -0.043839
0.011312 0.498999 -0.050784
-0.294569 0.060675 0.109093
0.021721 0.007945 -0.077320
0.018053 0.497105 0.208942
-0.042444 0.498994 -0.100675
0.063315 0.248724 -0.187015
0.057945 -0.387248 0.116192
-0.246239 0.372961 0.151650
-0.248659 0.348733 0.191473
0.090634 0.162004 0.221368
0.286732 0.131417 0.108612
-0.195418 0.080959 -0.037237
-0.158214 0.498999 -0.156061
-0.213531 0.450097 0.204752
0.120632 0.475296 -0.214433
-0.142753 0.386629 0.210366
0.079158 0.455669 -0.216446
0.099470 -0.076372 0.040788
-0.090268 -0.097393 0.044002
-0.241902 0.375663 -0.137417
0.048256 -0.267954 0.132458
-0.019345 0.499007 0.183834
-0.279016 0.146043 0.148235
0.243137 0.469904 -0.100729
-0.082001 -0.261581 0.114825
0.170650 0.211716 0.219553
-0.060631 0.009175 0.182806
0.250775 0.410683 0.074659
0.174922 -0.272547 -0.001133
0.049298 0.461861 0.209282
0.047596 -0.180837 -0.173945
-0.038066 -0.199594 0.143791
0.272869 0.252078 -0.095552
-0.077286 0.282830 -0.202504
-0.232169 0.483967 -0.024486
-0.192747 -0.234503 -0.002481
0.189775 0.330015 0.214711
-0.264481 0.151089 -0.038721
0.255415 0.242624 -0.125008
0.072751 -0.100001 0.082186
-0.174614 0.362965 0.211698
0.007396 0.499403 0.012793
0.109857 -0.222446 0.111956
0.268601 0.281302 0.008033
-0.264177 0.125645 -0.020127
0.117895 -0.419700 0.046118
-0.020348 0.498997 0.001056
-0.054377 -0.046064 0.131260
0.058737 0.295957 0.216674
-0.101198 -0.059004 0.034403
-0.092820 -0.223398 -0.137046
-0.280976 0.055136 0.137739
-0.269330 0.211068 0.122605
0.041823 -0.278190 -0.171903
-0.071248 0.498998 0.171160
0.278453 0.203726 0.096757
-0.124370 -0.205903 -0.058223
0.240970 0.210009 0.218816
-0.112850 0.498997 0.038031
0.029689 0.498997 -0.039189
-0.290197 0.089066 0.130301
-0.182760 0.164367 0.223299
-0.247255 0.364306 0.098003
-0.170376 0.382343 -0.212530
-0.106657 0.498997 0.085614
-0.119142 0.166053 -0.144040
-0.044049 0.042158 -0.084753
0.002613 0.217691 0.219591
0.056112 0.279621 -0.194265
-0.098432 -0.050590 -0.168053
-0.075446 0.498997 -0.123309
-0.031859 -0.033133 0.145727
-0.126750 -0.283691 -0.062539
-0.233977 0.464832 0.011936
0.054553 0.190833 -0.167027
-0.179700 0.465267 0.205215
-0.246704 0.363903 0.195418
0.246696 0.445152 -0.041116
0.108908 -0.006131 0.168095
-0.096808 -0.032028 0.136978
0.190912 0.294797 0.216040
-0.006666 0.417555 0.209892
0.071018 -0.146148 0.135063
0.287124 0.120842 0.127715
-0.240286 0.418841 0.180201
0.204226 0.165052 0.221719
0.273712 0.241824 0.051055
0.085929 0.030928 0.199481
0.117842 -0.359791 0.080344
0.110229 -0.189141 0.107831
-0.217469 0.211955 -0.123541
0.249222 0.386397 0.210720
-0.046498 0.498999 0.153003
-0.002517 -0.446300 -0.145528
-0.244173 0.346308 -0.175653
-0.050280 0.027819 -0.075366
-0.246648 0.170892 -0.066842
-0.001396 0.168666 0.221032
0.249322 0.419709 -0.051158
0.184398 0.498997 -0.098950
-0.088570 -0.470866 -0.034244
0.260743 0.337441 -0.046036
0.036508 -0.204403 0.149321
0.259973 0.208190 0.218273
-0.027994 0.499348 -0.065697
-0.182772 0.498974 -0.192518
0.047801 0.413837 -0.217507
-0.104498 -0.041560 0.118226
0.041933 -0.088420 0.106120
-0.231973 0.359285 -0.188929
-0.258425 0.280037 0.143965
0.168780 -0.179766 0.010851
-0.025545 0.490944 -0.217787
0.168497 0.256762 0.217860
-0.187916 -0.002199 0.091815
0.153096 -0.328721 0.009220
0.065345 0.498993 0.115216
-0.269948 0.245959 -0.063256
-0.018447 -0.414441 0.110707
0.163260 -0.179520 0.029410
-0.282693 0.150178 0.048263
0.172008 -0.257715 -0.063057
0.098570 0.479177 -0.216021
0.072075 -0.033556 0.139197
0.000962 0.498999 0.028089
0.225600 0.074770 -0.027483
-0.123363 -0.364977 -0.078230
-0.246013 0.208006 0.221297
-0.002734 -0.466529 -0.120499
-0.036939 -0.072424 -0.192201
-0.047749 -0.459953 0.066066
0.255102 0.375519 0.059995
-0.145200 -0.405709 -0.029109
-0.008778 -0.491378 -0.058433
-0.021153 0.498975 -0.204643
0.081049 0.190117 0.220515
0.103502 0.411537 -0.217933
0.089021 0.219634 -0.177784
-0.277989 0.132419 0.193032
0.093950 0.306160 0.216133
-0.031387 0.134075 0.222453
0.288580 0.127353 0.060301
-0.094674 0.085536 -0.106556
0.026596 0.180156 -0.161358
0.103147 -0.245992 -0.092598
0.049725 0.374776 -0.218550
-0.171207 -0.230214 0.027980
-0.219866 0.093586 0.225342
-0.244512 0.384991 0.164886
-0.033945 0.071508 -0.105156
0.132590 -0.031837 0.126615
-0.091897 -0.011862 0.160389
0.016948 -0.132670 0.115515
0.244902 0.464874 0.059697
0.019180 -0.036701 0.142354
-0.061048 0.107508 -0.128717
-0.142407 0.006965 0.012587
-0.141957 -0.014229 0.037651
0.131373 -0.157031 0.056489
-0.197512 0.123215 0.225536
0.017594 0.326596 -0.201086
-0.235794 0.432281 -0.073625
0.003243 0.307561 -0.195826
0.179913 0.399912 0.211722
-0.029057 0.240433 -0.182780
0.166514 -0.242033 0.017466
-0.083091 0.498997 -0.050987
-0.011707 -0.181979 -0.211972
-0.084690 0.290096 -0.205827
-0.170317 0.426745 0.206894
-0.178808 0.410882 -0.206864
-0.238566 0.295271 -0.159573
0.091175 0.498957 0.205699
0.120754 -0.261321 0.113973
-0.037102 0.028544 -0.081486
0.137490 -0.311329 -0.070710
0.270921 0.256102 0.119648
0.061614 0.172308 0.220870
-0.112033 -0.159876 0.061557
-0.147477 -0.012244 0.138631
-0.134956 0.499359 -0.101268
-0.001844 0.311163 -0.197499
0.219794 0.260633 0.217216
-0.256040 0.302483 0.142398
0.106246 0.498999 0.156298
-0.095488 -0.093709 -0.018948
0.205759 0.218950 -0.145163
0.134555 0.498997 0.168125
-0.134125 -0.193069 0.002948
-0.080786 -0.356997 -0.171172
-0.026644 0.020760 -0.081704
-0.095011 -0.381701 -0.148708
-0.110446 -0.416169 -0.094009
0.216176 0.498995 -0.106631
0.062449 0.062791 -0.099455
-0.221868 0.203642 -0.114279
0.114073 -0.194082 0.119332
-0.097172 -0.418621 0.081860
-0.000492 -0.095152 -0.199302
-0.041805 0.438751 0.208882
-0.078079 -0.193518 -0.158794
-0.122802 0.425439 -0.218596
0.213111 0.154001 0.221389
-0.181950 0.461294 -0.202378
0.033111 0.357322 0.213147
-0.194459 0.330900 -0.201272
-0.140879 -0.405537 0.019404
0.204131 0.030425 0.021090
-0.182313 -0.218997 0.006202
0.264143 0.315599 -0.049604
-0.032906 -0.197058 0.176345
-0.216478 0.469676 0.203517
0.273457 0.248733 -0.046658
-0.190722 -0.226124 0.003345
-0.176585 0.499009 0.194083
-0.066507 -0.203616 -0.169238
-0.040655 -0.049927 -0.073611
-0.265381 0.267421 -0.053871
0.249590 0.377152 -0.167883
-0.082754 -0.437420 -0.119008
-0.110292 -0.134958 -0.065046
-0.277973 0.092296 0.016238
-0.229140 0.477724 -0.142954
-0.017681 -0.257928 0.141218
0.086946 -0.009738 0.166055
-0.172857 0.379646 0.210425
-0.124230 -0.172824 0.105644
0.183793 0.139119 0.221926
0.218647 0.498997 -0.070273
0.061573 -0.298004 -0.167815
-0.053529 0.219476 0.219718
-0.007264 -0.061775 -0.103257
0.116119 0.281978 -0.202915
-0.011808 0.499005 0.183659
-0.263322 0.159196 0.223662
0.194904 0.082080 0.223225
0.251040 0.097819 -0.023272
-0.067912 -0.395070 -0.167526
-0.281744 0.135566 0.133218
-0.086755 -0.042777 -0.168388
-0.038945 -0.464764 0.064325
-0.012708 -0.016298 -0.178160
-0.161058 -0.336700 -0.029595
-0.099161 -0.025304 0.143690
-0.176399 0.010965 0.034506
-0.234576 0.471866 0.068893
-0.248361 0.357620 0.137460
-0.231955 0.351078 -0.187707
0.228932 0.498980 0.074107
0.254330 0.382645 0.031280
-0.233468 0.444980 -0.111321
-0.251295 0.146270 -0.044146
0.119251 0.498997 -0.147341
0.022776 0.101625 0.222126
-0.258238 0.284637 0.105240
-0.155713 -0.381126 -0.010140
-0.015110 -0.244289 0.153799
0.030957 -0.339572 0.129016
-0.273674 0.152343 0.209786
0.080790 -0.176257 -0.112147
0.162819 0.499004 -0.202543
0.018385 -0.152698 -0.183398
0.226635 0.198344 0.219517
-0.231148 0.495646 -0.032064
-0.150898 -0.375866 0.011129
0.127741 -0.395201 0.043109
-0.278069 0.194468 -0.015260
0.147667 0.498999 0.021711
-0.161318 0.401753 0.209048
0.072246 -0.464518 0.044042
0.132181 -0.283018 0.067022
-0.008828 -0.437242 -0.153552
0.249860 0.418121 -0.000711
-0.159182 -0.186317 0.110331
0.023051 -0.028875 -0.081915
-0.064423 -0.075585 0.102358
-0.139707 -0.371727 0.063896
0.187165 -0.003603 0.138991
0.093800 -0.273484 -0.109993
0.031795 -0.220401 0.154774
-0.092486 0.498995 -0.085181
-0.260732 0.284172 0.012003
-0.039285 0.498997 -0.094695
0.000041 0.499177 -0.064566
0.009521 -0.417885 0.109807
0.223031 0.244821 0.217894
0.131594 -0.031360 0.038228
0.211417 0.322683 0.214746
0.162986 0.209183 -0.158979
-0.024118 0.498997 -0.176647
0.162696 -0.006089 0.153656
0.254539 0.143063 0.221508
-0.152100 0.498996 -0.101096
0.290501 0.090330 0.123766
-0.121116 -0.269714 0.109965
0.034937 -0.332586 0.127820
0.146672 -0.357666 -0.029826
0.027159 -0.020159 -0.077633
0.121485 0.382194 0.212610
-0.062498 0.087337 0.225032
-0.128617 -0.026324 0.041183
-0.172086 -0.291135 0.002139
-0.168630 0.168037 0.222958
0.151496 -0.205013 0.059796
0.239932 0.193291 -0.103576
-0.092527 -0.206015 -0.130871
0.011136 0.409938 0.210408
-0.116652 -0.451984 -0.007509
0.251039 0.406193 0.122836
-0.086245 -0.223445 -0.146477
0.025993 -0.303143 -0.180673
0.147774 -0.343114 0.021696
0.203343 0.067289 -0.042028
-0.235089 0.486091 0.160459
-0.057533 -0.003713 -0.161439
-0.255039 0.038138 0.098546
-0.097120 -0.163682 -0.150924
0.250110 0.416158 -0.004923
-0.287289 0.126676 0.006646
0.085409 -0.139107 -0.052261
-0.034387 0.421037 -0.220025
0.257951 0.354501 0.032903
0.199782 0.424238 0.210567
0.187573 0.002916 0.153945
-0.110648 -0.164966 -0.071150
-0.285492 0.114751 0.135186
-0.011169 0.275231 0.217555
0.132816 -0.009366 0.160672
0.029240 -0.443045 -0.136466
0.249879 0.199008 -0.099453
-0.103791 0.498996 0.062170
0.262969 0.195875 0.218718
-0.159880 0.424883 0.207333
0.003261 0.321018 -0.200197
-0.218281 0.499004 -0.097829
-0.134653 -0.035443 0.091480
-0.034184 -0.362811 -0.183013
0.164722 -0.323405 0.021123
-0.131501 -0.154202 0.024989
-0.249410 0.350605 0.064461
0.010757 -0.064905 -0.193990
0.179421 0.044055 0.207840
0.280689 0.147724 0.201127
0.253967 0.057152 0.197809
0.190851 0.498997 0.119942
0.082171 0.030794 -0.071291
-0.124432 -0.196713 -0.054325
-0.237445 0.404691 -0.139185
-0.008963 -0.261429 -0.187724
0.251367 0.403962 0.167775
-0.057320 -0.122003 0.086745
0.119930 0.498997 0.079730
0.200076 0.156919 -0.108742
-0.162490 0.134153 -0.105626
0.021745 -0.183388 0.136421
0.115502 0.460665 0.209872
-0.025881 -0.431553 0.098980
-0.223344 0.251577 -0.145800
0.164340 -0.199821 -0.024421
-0.095904 0.131293 0.224388
0.227519 0.017163 0.097990
0.242417 0.488774 -0.107366
-0.053742 0.498997 -0.094049
-0.252597 0.326394 0.116851
0.254339 0.033701 0.143711
-0.167869 0.181641 -0.132839
-0.250279 0.342152 -0.077049
0.241417 0.475602 -0.148874
-0.145236 0.499012 0.179599
0.035142 0.414713 -0.217435
0.127255 0.091191 -0.102401
-0.151070 0.293443 0.216420
0.104049 -0.281515 -0.098257
0.031108 -0.132199 0.110979
-0.091267 -0.163762 -0.133269
0.098330 -0.057794 -0.025698
-0.101546 -0.180380 -0.109293
-0.256528 0.298704 0.094719
-0.050453 0.273503 -0.197488
0.150810 -0.336731 -0.042439
0.130979 -0.010439 0.007513
0.079868 -0.275001 0.129121
0.209550 0.037042 0.010297
0.139384 0.499009 0.188745
-0.183807 0.156250 0.223757
-0.006895 0.107245 -0.126587
0.293694 0.081743 0.045294
-0.189480 -0.206429 0.010840
0.081630 0.498997 -0.056757
-0.166350 -0.003500 0.138999
0.123777 -0.004171 -0.007928
0.138411 0.190612 0.220472
0.075500 0.045389 -0.085250
-0.154589 0.212047 0.220573
-0.225813 0.122851 -0.043725
-0.147947 -0.396471 0.003014
0.061814 0.269920 0.217733
-0.042884 -0.354365 -0.183953
0.205442 0.414397 0.211156
-0.140135 0.498995 0.004931
-0.036521 0.391780 -0.221820
-0.138874 0.163205 -0.135282
0.105976 0.428193 0.210504
0.142160 0.402261 0.211636
0.257924 0.334865 0.206291
-0.113341 -0.122054 0.085692
0.068803 -0.185574 0.118642
-0.078619 -0.056247 -0.191266
-0.039869 0.435924 -0.220560
0.282580 0.181239 -0.011637
0.035961 0.098276 0.222101
-0.002782 -0.479067 -0.093444
0.068599 -0.157143 -0.132092
-0.234619 0.474500 0.085460
-0.191242 0.417988 0.208036
0.139556 -0.168653 0.003912
-0.099075 -0.025168 -0.137584
-0.275241 0.161315 0.171358
-0.143999 0.418278 0.208193
0.050510 -0.295305 0.126099
0.184267 -0.271813 -0.030569
-0.126678 -0.164790 0.105641
0.276070 0.073736 0.207004
-0.078250 0.013639 -0.060720
-0.188480 0.278353 -0.182944
-0.058427 -0.455688 -0.116428
-0.096823 -0.065177 -0.021841
-0.166934 0.220909 0.220267
-0.030556 -0.471889 0.058258
-0.067854 -0.148549 0.083064
-0.195359 0.110549 -0.064138
-0.096427 0.498997 0.077672
0.084754 0.169993 0.221107
-0.099360 -0.457569 -0.056260
0.167197 0.499002 -0.116482
-0.170250 0.111501 0.225885
0.242593 0.292845 -0.165722
-0.230443 0.495765 -0.063452
0.027531 -0.438278 0.093261
0.228014 0.045741 0.017391
0.184566 0.149849 0.221612
-0.197872 0.347173 -0.203873
0.057210 -0.126925 0.087036
0.246759 0.156750 -0.073817
0.263413 0.108163 0.222231
0.159251 0.326406 0.214998
0.024362 -0.427269 -0.156391
-0.165618 -0.188726 0.018065
-0.216077 0.499121 0.187985
-0.022797 0.134660 -0.148475
0.258757 0.342017 0.106618
0.268161 0.128043 0.221701
0.126224 0.498997 -0.079776
-0.256908 0.306346 0.010256
0.225924 0.189964 0.220391
0.254798 0.353028 -0.156185
0.288292 0.130323 0.055694
0.251764 0.406754 0.108075
-0.011629 0.007025 -0.076267
-0.108289 -0.443694 -0.063537
-0.193368 0.189537 0.222126
-0.069528 -0.276605 0.118968
-0.098620 -0.107132 0.021503
0.045405 -0.336381 -0.182093
0.039219 0.498997 -0.001344
-0.042693 -0.040260 0.137407
0.113071 -0.196834 -0.027311
0.042764 -0.136221 0.116105
-0.074307 -0.068924 0.100571
-0.219796 0.099090 -0.027689
-0.080855 0.096106 -0.117548
-0.233348 0.276636 -0.153113
0.010933 0.009728 -0.076826
-0.089177 -0.052013 -0.100179
0.227408 0.427619 0.210306
-0.135679 0.291906 0.216506
-0.095994 -0.166084 -0.015227
-0.119693 0.306621 0.215658
0.063955 -0.085913 0.096536
0.155008 0.272852 0.217350
0.114599 -0.328219 0.091295
-0.156947 -0.149856 0.024215
0.056142 0.417769 0.210432
-0.129969 -0.135105 0.103083
-0.029344 -0.151613 -0.191758
-0.150404 -0.361868 -0.055747
-0.076981 0.387292 -0.224562
0.046424 0.172545 -0.159683
-0.013562 -0.052585 0.129498
-0.165000 0.498837 -0.202895
-0.093312 -0.366826 0.105622
0.004097 0.498997 -0.170758
0.079172 -0.103616 -0.155739
-0.149036 -0.368838 0.030575
0.038413 -0.136698 -0.197319
0.044035 -0.024221 -0.158417
-0.226991 0.157319 0.224043
0.279681 0.190961 0.117252
-0.241528 0.380994 0.207384
0.129123 -0.038147 0.048632
0.051827 0.424166 -0.217429
0.263267 0.324087 -0.047788
-0.140863 0.115233 0.226148
0.060336 0.086205 -0.112982
-0.241015 0.417733 0.106266
0.186495 0.001240 0.053485
-0.191206 0.287925 0.216559
-0.153295 -0.166949 -0.000872
-0.159847 -0.351801 0.023466
-0.078626 -0.067661 -0.050045
0.108810 0.264587 -0.196327
-0.164767 0.275658 -0.190547
0.258237 0.219792 -0.107546
-0.085873 -0.070822 0.087073
0.258155 0.118986 0.222791
-0.005621 -0.490462 0.034129
-0.037265 -0.490697 -0.039357
0.083916 -0.113707 -0.087416
-0.164429 -0.010750 0.060602
0.053664 -0.055535 -0.073544
-0.168275 0.043314 0.198651
-0.233601 0.493350 0.069543
0.047772 -0.112366 0.122677
-0.125831 -0.196068 0.126493
0.256691 0.364348 -0.030141
0.203429 0.013172 0.162076
0.180105 0.125937 -0.101134
-0.101888 0.308366 0.215727
-0.085137 -0.204392 -0.143264
-0.161419 0.498999 0.148915
-0.068678 -0.472011 -0.069859
0.099151 0.390130 0.212107
-0.031692 -0.218199 0.173073
-0.130042 -0.037251 0.069200
0.225032 0.031381 0.177909
-0.107764 -0.367495 -0.135911
0.152067 0.054763 -0.071565
-0.258082 0.304533 -0.063875
-0.234024 0.487164 0.052110
0.248058 0.085031 -0.013843
-0.084172 0.098310 0.226013
0.244922 0.466806 0.130597
0.063399 -0.209087 -0.150133
0.138684 -0.271542 -0.061070
0.103860 0.498578 -0.211166
-0.001884 0.463927 0.208422
0.218523 0.499002 0.016427
-0.003738 -0.462372 0.074614
-0.246271 0.032708 0.104140
0.169342 -0.260850 0.048039
0.178443 0.027488 -0.006775
0.087211 0.062173 0.220913
-0.127893 0.255725 0.218432
-0.219656 0.338921 0.212526
-0.107103 -0.240969 0.112785
-0.116343 0.062787 -0.085236
-0.097665 -0.165949 -0.145222
0.042872 -0.265551 0.145552
-0.208535 0.469694 0.204192
-0.089290 -0.450809 -0.083669
-0.161432 -0.002477 0.145296
0.225731 0.440003 -0.190176
0.163041 0.498996 0.066720
0.247490 0.442186 0.083328
0.127858 -0.412335 -0.039270
0.127861 0.391600 -0.218228
-0.154270 -0.241588 0.104001
-0.127251 0.409764 0.209037
-0.142319 0.266877 0.217846
0.030034 0.359890 -0.211736
-0.014684 -0.124405 0.139288
-0.078985 -0.052926 0.116104
0.149201 0.488605 -0.211302
0.113625 -0.014709 0.157841
-0.182776 -0.244100 0.020144
-0.239206 0.431772 0.137867
0.006937 -0.464683 -0.121629
0.027345 -0.396928 0.120779
0.106903 0.407509 0.212025
-0.015484 0.287287 -0.194166
0.039987 0.095025 -0.119876
0.067075 -0.287185 -0.147076
-0.253784 0.322109 0.062378
-0.038298 0.461848 -0.219421
0.064665 -0.479834 -0.028910
-0.089825 0.117119 -0.126347
0.186463 0.191587 -0.137944
-0.246299 0.291928 0.215665
0.237806 0.359047 -0.190410
-0.186051 0.042762 0.193050
0.022699 -0.128097 0.116741
-0.218821 0.498985 0.063144
0.089505 -0.071803 -0.046625
0.002810 0.498997 -0.039515
0.255414 0.127918 0.222063
0.098156 -0.444984 0.050271
-0.058433 -0.122873 -0.184094
-0.067208 0.253719 -0.191562
0.140746 -0.339190 0.052941
-0.276486 0.196073 0.014610
0.070058 -0.309808 0.118396
-0.075701 0.128976 0.223970
-0.230185 0.312754 -0.175389
0.122470 -0.013067 0.000416
0.267092 0.278331 0.164847
-0.161481 -0.017978 0.094361
-0.135959 0.385914 0.210771
-0.007449 0.260944 0.218126
0.154778 0.499004 -0.170627
0.082954 -0.144502 -0.057119
-0.166551 -0.008486 0.127906
0.243412 0.469097 -0.087289
-0.105936 -0.302083 -0.155803
-0.145577 -0.143727 0.032614
0.099991 -0.441570 -0.076217
-0.109347 -0.323505 -0.154545
-0.143256 -0.288715 0.081555
0.037754 0.498999 -0.101205
0.264369 0.312398 -0.043698
0.116765 -0.000182 0.173772
-0.057354 0.032406 -0.075957
0.280906 0.190639 0.022951
-0.087675 0.282696 -0.203500
0.277858 0.209410 0.083093
0.203486 0.005309 0.142801
0.161374 -0.245153 0.052224
0.172763 -0.167399 0.034177
0.244715 0.181430 -0.091734
-0.210304 0.011414 0.101199
-0.023736 -0.111991 0.107784
0.040981 -0.110704 -0.196071
0.080470 -0.113581 -0.075876
-0.149688 0.360428 -0.220745
-0.092831 -0.097138 0.038197
-0.168506 0.105222 -0.083571
-0.233061 0.465948 -0.028910
-0.080204 0.499014 0.182098
0.056643 0.499397 -0.207835
0.005151 0.220882 0.219390
0.035431 0.487119 -0.216575
0.078137 0.498997 -0.009952
0.250944 0.349082 0.213024
0.071156 -0.135558 0.103556
-0.023389 0.024767 -0.082827
0.033089 0.130583 -0.146636
-0.057719 0.498999 0.077631
-0.139973 -0.366590 0.070049
0.164044 -0.298754 0.006050
-0.238228 0.436915 0.157614
0.063828 -0.283182 0.128159
-0.009255 0.498997 -0.096255
-0.066960 0.408938 -0.222396
0.149541 0.184666 -0.150291
0.266728 0.292012 0.053342
-0.127032 -0.428125 0.032849
0.008106 -0.149040 -0.178976
-0.115168 0.498994 -0.106869
0.216015 0.220554 0.218840
0.076283 -0.308215 -0.133753
-0.179163 0.017074 0.028913
-0.121421 -0.367106 -0.090983
0.076373 -0.000049 0.173377
0.132353 -0.178940 0.068478
0.069574 0.003209 0.175513
0.185516 0.020062 0.016442
0.043733 -0.309961 -0.186298
0.126385 -0.351732 0.073611
0.246196 0.444075 0.170825
0.108224 -0.435272 -0.059105
0.264859 0.278496 0.210194
-0.272779 0.177862 0.171531
0.098368 -0.128737 -0.030446
-0.072117 -0.198339 -0.164742
0.262599 0.324909 -0.037188
0.114389 -0.199624 0.124818
0.032716 -0.163513 -0.185328
-0.007299 0.498997 -0.147286
-0.033253 0.386850 0.211417
0.269333 0.145418 0.221034
0.134899 0.499009 -0.199916
-0.169639 0.387051 0.209875
-0.046382 -0.464648 -0.110472
-0.241292 0.412787 0.125474
0.090594 0.498994 -0.135577
-0.056960 0.395400 -0.223506
0.018462 0.238357 0.218819
-0.289995 0.100907 0.091889
-0.244334 0.374533 -0.078178
-0.058551 -0.229351 -0.177854
0.043528 -0.079198 -0.209134
-0.096036 -0.370647 0.104067
-0.168136 0.498989 0.041273
0.136042 0.313150 -0.212129
0.175412 -0.198400 -0.002637
0.260090 0.042968 0.081818
-0.216626 0.262854 0.217908
-0.005533 -0.173117 0.176665
-0.135329 -0.033513 0.069173
0.061286 0.307456 -0.204407
0.045860 0.440645 -0.217003
-0.103188 -0.049973 -0.002452
0.196017 0.498997 -0.149863
0.076247 0.477828 -0.216712
0.122862 -0.278266 0.088927
-0.177867 0.092787 -0.066873
0.138438 0.330609 -0.215623
0.017789 -0.014422 -0.145348
0.097101 0.154770 0.221480
-0.068928 0.142324 -0.145649
0.158347 0.464793 -0.210446
0.002791 0.112610 0.222755
0.243036 0.492216 0.173154
0.231634 0.215543 0.218783
-0.067097 0.488073 -0.218910
-0.145969 0.138367 -0.116687
0.117224 -0.023282 0.004199
0.257368 0.345728 0.174006
0.065863 -0.208296 -0.147305
0.055224 -0.318993 0.123838
-0.262157 0.205358 -0.077968
0.043612 0.162484 0.220887
0.003690 -0.352430 -0.192515
0.117144 -0.435800 -0.039725
0.212172 0.006073 0.113464
-0.172933 -0.198433 0.022633
0.020158 0.026577 0.190244
-0.005070 -0.082424 0.112524
-0.234076 0.490682 0.104686
0.115310 0.498997 0.104316
0.221656 0.041140 0.019787
0.103631 -0.059590 0.013301
-0.159394 0.055812 -0.054399
-0.086616 -0.369089 0.108928
-0.026984 -0.497022 0.000069
0.210996 0.028587 0.182462
0.257157 0.355380 0.127422
0.131579 0.068184 -0.087834
0.116434 0.498997 0.170935
0.102569 -0.193008 0.097053
0.150661 0.079962 -0.087739
0.166653 -0.197315 -0.037614
-0.192821 0.498997 0.014293
0.073464 -0.442323 -0.102177
0.005089 -0.194568 0.175488
0.005250 -0.309398 0.134763
0.041841 -0.055944 -0.202869
-0.150452 -0.186862 -0.010726
-0.002764 0.171019 -0.159557
-0.241230 0.172127 0.223277
-0.077521 -0.165956 0.123360
-0.246677 0.358545 -0.096505
-0.253553 0.295370 -0.143631
-0.177662 -0.240073 0.024986
-0.126202 0.068105 -0.084491
-0.144935 0.109080 -0.099256
-0.160267 0.016009 0.171346
0.091413 -0.142003 -0.087186
-0.088752 -0.211415 -0.141223
0.018828 -0.126217 -0.186664
-0.138251 0.241695 -0.179247
-0.055529 -0.288007 0.131629
-0.176204 0.250276 0.218765
-0.133321 -0.373450 0.070281
-0.110744 0.130370 0.224131
-0.006127 0.498997 0.115401
-0.268006 0.255207 -0.087547
0.291656 0.110280 0.029352
0.258065 0.354434 -0.055687
-0.019113 -0.338745 0.134201
0.001323 0.439361 -0.217657
0.047547 -0.129989 -0.196646
-0.000022 0.499183 0.057380
0.048491 -0.136585 -0.187008
0.095619 0.235238 0.219164
0.153434 0.241473 0.218590
0.241702 0.036588 0.172822
0.242232 0.456264 -0.152095
-0.132025 -0.377231 0.068820
-0.098161 -0.103760 -0.188787
-0.062082 0.393967 0.210747
-0.131005 0.336973 0.213733
0.016746 -0.226240 0.146938
-0.179534 0.499177 0.002058
0.038594 0.433653 -0.217141
0.116307 -0.274802 0.115634
-0.235351 0.463150 0.146140
-0.106729 -0.237202 -0.125307
0.245110 0.144746 0.221589
-0.068147 -0.313014 -0.179500
-0.094510 -0.078788 0.042349
-0.041601 0.498999 0.074158
-0.127801 -0.258169 0.103945
0.285163 0.164371 0.008964
-0.049042 0.498997 0.168230
0.176047 0.227822 -0.164530
-0.200064 0.178169 0.222720
-0.192628 0.499068 -0.031874
-0.091252 0.498986 0.120468
-0.000898 -0.312000 -0.179782
0.215781 0.054728 0.208837
0.025462 -0.253122 -0.170956
0.132022 0.375691 0.212800
0.282058 0.149782 0.172759
-0.135956 -0.158515 0.037935
0.045560 0.498999 -0.186954
-0.128050 0.151568 0.223226
0.265786 0.302623 -0.102148
